-0.450325 0.449081 0.161614 -0.071847 0.985482 -0.153828
0.571077 -0.302214 -0.192875 -0.099789 0.029716 0.994565
0.604377 0.183737 0.075371 0.080067 0.691132 0.718279
-0.371994 -0.260350 -0.057893 -0.729617 -0.628157 0.270329
0.728182 0.283790 0.028161 0.578653 -0.762030 -0.290639
0.124729 0.071143 -0.274991 -0.073440 0.575293 -0.814644
0.228402 -0.248415 -0.079551 0.164265 -0.639821 0.750763
-0.801247 0.368653 0.318092 -0.777954 -0.595235 0.201205
-0.095829 0.270815 0.005713 0.410991 0.884061 0.222539
-0.499722 0.100713 0.015421 -0.877688 -0.441144 0.187234
0.252594 0.175364 0.045911 -0.209688 0.812891 0.543359
0.334773 -0.177447 -0.022920 0.364092 -0.887040 0.283897
-0.381302 0.204633 0.328941 0.911077 -0.313321 0.267896
0.252034 0.212562 -0.020549 0.121758 0.974220 0.189921
-0.623595 0.352142 0.342348 -0.796010 0.403133 0.451500
0.651451 -0.414964 0.182417 0.245114 -0.237622 -0.939923
-0.651229 0.395850 0.174599 0.013731 0.962606 -0.270556
-0.192002 -0.164890 -0.355917 0.559642 -0.601485 -0.570102
-0.669631 -0.531777 -0.035983 -0.143313 0.206357 0.967925
-0.295895 -0.319103 -0.204705 -0.358243 -0.793249 0.492359
-0.486896 0.020021 -0.042840 -0.887799 0.301300 -0.347895
0.041839 -0.075650 0.151383 -0.022409 -0.352892 0.935395
0.696373 0.043575 0.057317 0.972342 0.194934 -0.128652
-0.564049 0.108264 0.394841 -0.252587 -0.885753 -0.389412
-0.621541 0.359943 0.256522 -0.466293 -0.833895 0.295280
-0.450164 -0.358586 -0.037496 0.272419 0.144990 -0.951192
-0.074369 -0.128458 0.111789 -0.132818 -0.471952 0.871562
-0.707195 -0.547177 -0.041002 -0.428600 -0.007715 0.903462
-0.693854 0.379040 0.255790 -0.356586 0.222412 0.907403
-0.151949 -0.185397 -0.286371 0.125194 -0.652564 -0.747320
-0.195139 0.317006 0.028431 0.358680 0.930589 -0.073162
-0.482244 0.282767 0.433611 0.488654 0.140671 0.861062
-0.464576 -0.539042 -0.507310 -0.207707 -0.384398 0.899498
-0.199894 -0.055510 0.176631 0.228610 -0.219139 0.948533
0.425369 0.201928 -0.156676 0.177751 0.886000 -0.428263
-0.193400 0.196058 0.149565 0.271765 0.365477 0.890264
-0.146919 0.290295 -0.067631 0.294634 0.954617 -0.043548
0.499302 0.240442 0.003529 -0.220841 0.924915 0.309453
-0.622579 0.351194 0.216555 -0.154556 -0.956663 0.246795
-0.155056 0.059163 0.172952 0.219737 0.252912 0.942206
0.619783 -0.255185 0.172629 -0.461041 -0.658607 0.594709
0.801153 0.334081 0.110549 0.527946 0.846664 -0.066583
0.732994 0.302881 0.015903 0.636436 -0.131360 -0.760062
-0.234009 -0.199360 0.123793 0.132181 -0.340421 0.930936
0.450526 -0.207413 -0.247409 -0.235206 -0.186224 -0.953939
-0.513578 0.167333 -0.050415 -0.774990 -0.201070 -0.599134
-0.341051 -0.309769 -0.443916 0.133493 0.631878 -0.763485
0.320818 -0.190261 -0.046101 0.302834 -0.921156 0.244466
-0.423335 0.163370 0.356908 0.672109 -0.579324 0.461143
0.068676 0.033923 0.147180 0.053323 0.229149 0.971930
0.456503 0.237824 -0.034403 0.003261 0.944718 -0.327869
0.282167 0.214924 -0.073232 -0.151203 0.977199 -0.149060
0.387241 -0.156452 -0.033360 0.558500 -0.792276 0.245715
-0.386895 0.169480 0.298285 0.280180 -0.952462 -0.119648
-0.574514 0.345600 0.400361 -0.226040 0.475685 0.850076
-0.241198 -0.021075 0.180426 -0.304057 -0.067374 0.950269
-0.018278 -0.080338 0.144771 -0.081871 -0.381978 0.920538
-0.681688 -0.568700 -0.075387 -0.000000 -1.000000 0.000000
-0.422047 -0.177311 -0.013335 -0.867422 -0.497192 0.019460
-0.409415 -0.189178 0.075981 -0.834795 0.101783 0.541071
0.319269 0.008316 -0.222073 0.055375 0.034055 -0.997885
-0.386375 0.216299 0.355638 0.724213 -0.222128 0.652820
-0.387874 -0.324561 -0.033320 -0.144342 0.030215 -0.989066
0.348784 -0.431136 -0.308677 -0.619912 0.771173 -0.144918
0.679448 0.466269 0.336217 -0.131056 -0.141678 0.981199
0.548394 -0.359022 -0.226587 0.685045 -0.687296 -0.241530
0.470008 0.089105 -0.225040 0.167834 0.595012 -0.785998
-0.182548 -0.293777 -0.040820 0.007362 -0.905797 0.423648
0.443401 -0.072066 0.163139 -0.537191 -0.215254 0.815531
-0.438906 -0.471644 -0.542516 0.028105 0.787342 -0.615875
0.388613 -0.140544 0.075585 -0.048275 -0.995583 0.080519
-0.621140 -0.558458 -0.087495 0.803282 -0.531953 -0.267888
-0.045171 -0.127648 0.116472 -0.128751 -0.454456 0.881415
-0.441703 -0.000606 -0.140924 -0.964268 -0.034028 -0.262733
0.699852 0.016855 0.047993 0.983848 0.012725 -0.178551
-0.335339 -0.295763 -0.218519 -0.588236 -0.298178 -0.751711
-0.576774 0.132494 0.472673 -0.069633 -0.668391 0.740544
0.680006 0.333756 0.257891 -0.191422 -0.444957 -0.874855
-0.129477 0.227708 0.105392 0.407601 0.418631 0.811547
0.673545 -0.047919 0.009674 0.911798 -0.209321 -0.353284
-0.365782 0.225871 0.306750 0.680397 -0.519070 0.517326
0.333907 -0.189101 -0.070437 0.606569 -0.575318 -0.548711
-0.243441 0.396567 0.381063 0.850340 0.371471 -0.372735
-0.406512 -0.063094 0.110398 -0.719741 -0.124157 0.683051
-0.608843 0.429825 0.286641 -0.676747 0.499180 0.541140
0.613180 -0.106593 -0.155983 0.653734 -0.742628 0.145380
-0.592633 0.285107 0.400150 -0.810021 -0.476222 0.342167
0.156534 -0.257927 -0.117491 0.080524 -0.984017 -0.158829
-0.144075 -0.167566 -0.299466 0.640695 -0.552175 -0.533490
0.207989 0.059191 0.123727 0.031910 0.397843 0.916898
-0.335644 0.323522 0.299302 -0.396198 -0.061374 0.916111
0.197050 0.153448 0.060478 -0.170624 0.823232 0.541458
-0.542833 0.243723 -0.002480 -0.945880 0.006578 -0.324449
0.352898 0.185610 -0.179398 -0.480119 0.876423 0.037002
-0.767876 0.388432 0.215671 -0.606718 0.538253 -0.584959
-0.412469 -0.023666 0.107518 -0.936042 -0.216990 0.277021
-0.394367 0.376180 0.381781 0.823581 -0.293554 0.485325
0.692869 0.387071 0.303764 0.985496 -0.007601 -0.169526
-0.242202 -0.100849 -0.366782 -0.036836 0.315661 -0.948157
0.058467 -0.121637 0.134432 -0.022409 -0.352892 0.935395
-0.334142 0.124907 -0.253875 -0.526299 0.558521 -0.641142
0.529127 -0.046130 -0.236150 0.457150 0.124575 -0.880622
-0.331846 0.264885 -0.138879 -0.311445 0.591281 -0.743901
0.419776 -0.201887 -0.200910 -0.869372 -0.340216 0.358393
0.099705 -0.108964 0.140136 0.018600 -0.435351 0.900069
-0.358352 0.272137 0.333879 0.923068 -0.140777 0.357948
0.675663 -0.000102 -0.016067 0.921286 -0.215415 -0.323772
-0.251959 0.004354 0.176371 -0.295632 0.027972 0.954892
0.311469 -0.185997 -0.019750 0.364092 -0.887040 0.283897
0.157357 -0.227983 0.024799 0.168386 -0.918926 0.356681
0.613534 -0.025041 0.171894 0.438105 0.148379 0.886593
-0.396013 -0.028638 0.129385 -0.645969 -0.544766 0.534747
0.289140 0.057957 -0.223280 0.184749 0.167672 -0.968377
-0.029342 -0.284901 -0.035734 0.061924 -0.997725 -0.026629
-0.453468 0.035628 -0.101065 -0.828989 -0.285089 -0.481147
-0.195612 -0.244906 0.053876 0.728703 -0.677810 0.097804
-0.285835 0.321705 -0.072398 -0.192154 0.800565 -0.567602
-0.803645 0.372433 0.265649 -0.841394 -0.539248 -0.035593
0.358116 -0.463482 -0.359961 0.421191 0.121338 -0.898819
0.528434 0.203036 0.060534 -0.203845 0.707685 0.676483
-0.591955 0.448331 0.253713 -0.242785 0.956174 -0.163669
0.547923 -0.050853 -0.227061 0.457150 0.124575 -0.880622
-0.087149 -0.179285 -0.283585 0.081487 -0.604100 -0.792732
0.062732 0.219708 -0.081634 0.425773 0.799119 -0.424414
-0.429164 -0.511062 -0.493037 -0.165621 -0.065341 0.984022
-0.363449 -0.340172 0.057825 0.077987 -0.364377 0.927980
-0.334520 -0.298122 -0.196005 -0.290272 -0.862728 0.414057
-0.141850 0.260222 0.083596 0.510504 0.635085 0.579701
0.666022 -0.007338 -0.102021 0.923100 0.298127 -0.242915
0.468013 -0.237635 -0.245687 -0.137786 0.208008 -0.968374
-0.292387 0.321601 0.236770 0.768923 0.258223 0.584874
-0.368665 0.281894 0.353941 0.840658 0.098495 0.532534
0.545976 -0.528957 0.234426 0.310126 -0.923179 -0.227075
-0.303925 0.279910 -0.122475 -0.008913 0.839246 -0.543679
-0.513825 0.101383 0.434956 0.040570 -0.971498 0.233551
0.063108 0.171426 -0.189838 0.185600 0.862097 -0.471530
0.240909 -0.144701 0.100235 0.240892 -0.401718 0.883512
-0.422766 0.142556 0.248844 -0.188844 -0.475615 0.859144
-0.583324 0.142138 0.403563 -0.985741 -0.164508 -0.035372
-0.415403 -0.421213 -0.494794 -0.028246 0.725834 -0.687290
0.612404 -0.079876 -0.044495 0.736459 -0.557643 0.382964
-0.357215 0.338316 0.335367 0.860182 -0.350911 0.370066
-0.428087 -0.414374 -0.478282 -0.822984 0.462022 -0.330504
0.676827 -0.279448 0.196554 -0.263804 0.053567 0.963088
-0.390877 -0.242608 -0.085830 -0.728372 -0.637079 -0.252200
-0.616870 0.347400 0.358438 -0.796010 0.403133 0.451500
0.428099 0.048037 0.164452 -0.533880 0.260148 0.804546
-0.200697 -0.253459 0.062726 0.944303 -0.326397 -0.041913
-0.413843 0.415859 0.383962 0.219170 0.478654 0.850209
-0.006723 -0.285352 -0.118552 0.136502 -0.988755 0.061082
0.250987 0.216600 -0.054264 -0.352022 0.758008 -0.549094
0.695896 0.047007 0.055904 0.998874 0.008701 -0.046633
-0.165306 0.287975 -0.103109 0.303702 0.900096 -0.312396
-0.476404 -0.026349 -0.095542 -0.718263 0.349893 -0.601393
0.039412 -0.262274 0.011593 0.024852 -0.935308 0.352960
-0.534292 0.392148 0.107675 -0.650772 0.706486 -0.278162
-0.061995 -0.220094 -0.236159 0.174390 -0.827851 -0.533151
0.180097 0.160109 0.045007 -0.170624 0.823232 0.541458
-0.526936 0.102831 0.224077 -0.925061 0.379251 0.020744
0.333023 -0.508293 -0.282032 -0.392730 0.138417 0.909178
0.592683 -0.244492 0.162714 -0.458856 -0.810767 0.363466
-0.054896 -0.159463 -0.295375 0.081487 -0.604100 -0.792732
0.119250 0.120483 -0.240446 0.171932 0.520814 -0.836177
-0.443709 -0.021614 -0.130840 -0.964268 -0.034028 -0.262733
-0.586312 0.214808 0.273329 -0.964318 -0.232404 -0.126807
0.574257 0.143842 -0.168731 0.389293 0.586922 -0.709911
0.691087 0.271575 -0.008155 0.559240 -0.173065 -0.810740
0.098949 0.199138 0.007975 0.026838 0.944793 0.326566
-0.035534 -0.080477 0.140466 -0.242405 -0.319357 0.916106
-0.248745 -0.273564 0.077072 0.070091 -0.239169 0.968445
0.490364 0.221041 -0.082895 -0.026719 0.944198 -0.328293
-0.477284 -0.018613 -0.089990 -0.718263 0.349893 -0.601393
0.550736 0.203026 0.067264 -0.203845 0.707685 0.676483
-0.097228 0.111753 -0.262455 0.141238 0.496911 -0.856231
0.388432 -0.142378 0.052794 -0.048275 -0.995583 0.080519
0.290198 -0.500782 -0.311855 -0.690811 0.126141 0.711947
-0.077529 0.172739 -0.204495 0.253976 0.663344 -0.703897
0.538161 -0.338809 -0.258635 0.322879 0.162979 -0.932302
0.358757 -0.434843 -0.290353 -0.687495 0.518128 0.508817
-0.574446 0.282713 0.177132 -0.953051 -0.168909 -0.251323
-0.301535 0.379881 0.225062 0.882954 0.372054 0.286302
0.323533 0.141092 -0.190056 -0.411774 0.461514 -0.785778
0.065590 0.187613 0.032766 0.275541 0.523518 0.806229
0.558138 0.240534 -0.032346 -0.026719 0.944198 -0.328293
-0.103628 0.159395 -0.226486 0.253976 0.663344 -0.703897
-0.212386 0.371605 0.356919 0.667837 0.714280 -0.209278
0.320942 -0.069777 0.109113 0.044316 -0.553821 0.831456
0.065756 0.159749 0.058640 0.045492 0.696662 0.715955
-0.481466 -0.324307 0.009948 -0.701833 0.707196 -0.085471
-0.694349 0.350847 0.154177 -0.286563 -0.924646 0.250823
-0.438077 0.367363 -0.005450 -0.212234 0.668816 -0.712490
-0.784365 0.429856 0.406244 0.106493 -0.669149 0.735458
-0.169919 0.213486 -0.193116 0.231670 0.757767 -0.610014
-0.575727 0.196343 0.250916 -0.832243 -0.500674 -0.238111
-0.671850 0.362167 0.118592 -0.150228 0.719126 -0.678446
-0.685293 -0.565806 -0.095778 -0.251723 -0.911737 -0.324609
0.599636 -0.126556 0.010802 0.244285 -0.868215 -0.431889
0.698495 0.372837 0.300053 0.694435 -0.002879 0.719549
-0.207517 0.005496 -0.332890 0.008328 0.537851 -0.842999
-0.335697 -0.344130 0.043341 0.355996 -0.882567 0.307152
0.520441 -0.216001 -0.183809 0.411359 -0.042848 0.910466
-0.578295 0.202713 0.246495 -0.832243 -0.500674 -0.238111
-0.587141 0.329003 0.132837 0.011575 -0.433177 -0.901235
-0.537534 0.120015 0.469685 0.070497 -0.971231 0.227464
0.178088 -0.240179 -0.020937 0.317066 -0.888215 0.332481
0.506679 -0.277784 -0.189455 -0.092643 -0.152130 0.984009
0.664802 0.013691 -0.080848 0.923100 0.298127 -0.242915
0.491508 -0.262032 -0.253794 -0.141566 0.186620 -0.972179
0.497905 -0.175029 0.152981 -0.694688 -0.412834 0.589047
-0.335958 -0.228452 -0.239930 -0.423418 -0.569738 -0.704355
0.253083 0.050599 0.125346 0.058776 0.375839 0.924819
0.633748 0.038744 -0.163428 0.616029 0.158314 -0.771651
-0.152920 0.053253 0.174041 0.219737 0.252912 0.942206
-0.407720 0.266076 -0.106933 -0.297943 0.601882 -0.740924
-0.450126 -0.557718 -0.542172 0.334188 -0.921950 -0.195774
-0.287141 0.184650 -0.211904 -0.133172 0.696039 -0.705546
0.584455 -0.225665 -0.032068 0.420233 -0.513723 0.747992
0.327750 0.124345 0.110425 -0.673816 0.086008 0.733877
-0.568009 0.427600 0.323020 -0.331279 0.629911 0.702472
0.671862 -0.140921 0.150289 0.809932 0.133319 0.571172
-0.674355 -0.501277 -0.080343 -0.406218 0.857860 -0.314743
0.327212 -0.478476 -0.294478 -0.503552 0.411852 0.759482
0.206644 -0.197722 0.065254 0.317066 -0.888215 0.332481
0.280553 -0.162825 -0.143307 0.452565 -0.708400 -0.541622
-0.247357 0.270596 0.177819 0.557041 0.155289 0.815838
0.411361 -0.055195 0.147702 -0.489255 -0.255981 0.833729
-0.147551 0.256798 0.092367 0.510504 0.635085 0.579701
0.138589 -0.260990 -0.116994 0.214037 -0.975564 0.049635
-0.279895 -0.275104 0.082423 0.239973 -0.282309 0.928824
0.686938 0.332106 0.268474 -0.203780 -0.847342 0.490393
0.032238 -0.159097 -0.289629 0.071025 -0.527485 -0.846590
-0.512736 0.073754 0.147141 -0.990800 -0.112167 -0.075729
-0.345248 -0.373055 -0.401453 0.317209 -0.848202 0.424184
-0.315793 -0.291515 -0.425107 0.698273 0.073417 -0.712056
0.023119 -0.250745 0.041924 -0.000517 -0.888940 0.458023
0.607325 -0.171219 -0.069459 0.660917 0.539612 -0.521543
0.178696 0.041552 0.130958 0.194513 0.345870 0.917899
-0.341166 -0.375490 -0.441092 0.564197 -0.564079 -0.602907
0.638678 -0.127539 0.040779 0.435068 -0.726448 -0.531968
0.554112 -0.132015 -0.014525 0.055377 -0.993467 -0.099788
-0.000570 0.166840 -0.205664 0.039020 0.848664 -0.527491
0.178820 -0.126358 0.124026 0.169976 -0.375429 0.911132
0.701549 -0.024693 0.073355 0.968131 -0.223297 -0.113406
-0.149268 0.162399 -0.234964 0.034651 0.647594 -0.761197
-0.676793 -0.568700 -0.056977 -0.000000 -1.000000 0.000000
0.418407 -0.416501 -0.264010 -0.259783 -0.127600 0.957200
0.732952 0.323476 0.218658 -0.210463 -0.959505 -0.187231
0.379005 -0.156511 -0.059316 0.197352 -0.960237 -0.197478
-0.277946 -0.174823 0.139004 0.132181 -0.340421 0.930936
0.284727 -0.186537 0.012638 0.302834 -0.921156 0.244466
-0.089337 0.238206 0.066943 0.466680 0.621754 0.628992
-0.375112 -0.450503 -0.479537 0.999810 -0.019130 -0.003616
0.293025 -0.011054 0.126244 -0.037757 -0.227575 0.973028
0.445060 -0.427749 -0.313373 0.214116 0.407248 -0.887864
-0.314621 0.382007 0.393013 -0.579643 -0.583937 0.568359
0.592492 -0.152723 -0.069481 0.926906 0.159912 -0.339520
-0.195483 -0.176069 -0.344292 0.520784 -0.844296 -0.126287
-0.300371 0.398339 0.155292 0.727939 0.678625 0.097840
-0.793456 0.351912 0.260012 -0.741777 -0.560470 -0.368295
-0.443447 0.038283 -0.122624 -0.937726 0.160760 -0.307938
-0.301066 0.016290 0.177385 0.148344 -0.164756 0.975115
-0.339905 -0.336195 0.002624 0.644009 -0.675477 -0.359143
-0.532351 0.180603 0.179030 -0.410372 -0.891145 0.193533
-0.085194 -0.130832 0.108704 -0.206743 -0.398834 0.893414
-0.449355 0.461805 0.317268 0.122036 0.992164 -0.026775
-0.185781 0.125448 -0.263923 -0.023218 0.652553 -0.757387
-0.394386 0.177951 0.329122 0.683284 -0.621989 0.382431
-0.384496 0.395316 -0.001759 -0.390930 0.800481 -0.454318
0.131952 -0.208685 -0.194452 0.248039 -0.615285 -0.748266
-0.289119 0.380052 0.062496 0.553853 0.818064 -0.154977
-0.332659 -0.285573 -0.425993 0.035191 0.334634 -0.941691
0.602369 -0.178312 -0.075576 0.392263 0.253606 -0.884202
-0.238998 -0.283956 0.032610 0.209989 -0.937393 -0.277846
0.679116 0.124348 0.007267 0.831699 0.424313 -0.358098
-0.379526 0.074215 -0.243699 -0.743766 0.434673 -0.507811
0.039087 0.061399 0.133162 0.008383 0.591174 0.806500
0.308759 0.136292 0.091278 -0.700355 0.424671 0.573723
-0.546921 0.230443 0.043061 -0.907316 -0.418564 -0.039780
0.566493 -0.221053 -0.068345 -0.750763 -0.504627 -0.426271
-0.198160 0.205795 -0.203348 0.060531 0.605862 -0.793264
0.046409 0.143394 -0.227887 0.039066 0.711680 -0.701416
0.261785 -0.185718 0.042514 0.351580 -0.885681 0.303252
-0.248628 -0.308531 -0.216932 0.222407 0.270299 -0.936736
-0.318903 0.402091 0.208831 0.567480 0.797570 0.204570
0.667535 0.051008 -0.133939 0.616029 0.158314 -0.771651
-0.451903 0.436921 0.085095 -0.316517 0.835346 -0.449460
-0.482564 0.428658 0.363840 -0.275151 0.698532 0.660564
0.619344 -0.469434 0.189431 0.164818 -0.897978 -0.408007
-0.576055 0.235994 0.197973 -0.820733 -0.140710 -0.553713
-0.111742 0.258097 0.061555 0.385018 0.682862 0.620855
0.044467 0.078008 0.121311 0.033605 0.560748 0.827304
0.364542 0.192409 0.078341 -0.090674 0.890982 0.444892
-0.116019 -0.017106 -0.314003 0.464546 -0.282592 -0.839249
0.557918 0.010391 -0.210772 0.498993 0.212574 -0.840130
-0.486063 -0.504666 -0.558307 -0.861944 0.506929 -0.008708
0.343152 0.049355 0.133642 -0.356178 -0.072538 0.931598
-0.398142 -0.049689 0.121655 -0.719741 -0.124157 0.683051
0.548237 -0.359441 -0.225839 0.685045 -0.687296 -0.241530
0.385114 -0.157322 -0.049271 0.197352 -0.960237 -0.197478
0.648037 0.246127 -0.022566 -0.123020 0.220599 -0.967575
0.638537 0.048547 0.145648 0.591234 0.145134 0.793334
-0.451349 0.099390 -0.124998 -0.788318 -0.228655 -0.571202
-0.480469 -0.112326 -0.123662 -0.492914 -0.535029 0.686134
-0.380418 -0.079341 -0.255921 -0.959230 -0.153905 -0.237048
-0.339330 -0.068327 0.167654 -0.245759 -0.199246 0.948632
-0.467948 -0.116729 -0.118100 -0.492914 -0.535029 0.686134
-0.208164 0.371584 0.370319 0.667837 0.714280 -0.209278
-0.799029 0.409521 0.381312 -0.830773 -0.230232 0.506763
-0.095417 -0.028693 -0.314259 -0.181474 0.031866 -0.982879
-0.733909 -0.548268 -0.070170 -0.780520 0.620445 0.076404
0.643726 -0.007555 -0.162841 0.747211 -0.200320 -0.633678
0.518458 0.239992 -0.030678 -0.026719 0.944198 -0.328293
-0.186260 -0.130876 -0.362901 0.265584 0.245097 -0.932412
0.696990 0.060831 0.081918 0.998874 0.008701 -0.046633
0.691546 -0.302943 0.203934 -0.131489 0.476564 0.869251
-0.352096 0.449443 0.559495 -0.775541 -0.198627 -0.599236
0.069450 -0.128306 0.131405 0.018600 -0.435351 0.900069
0.576402 -0.116023 -0.205158 0.464627 -0.273453 -0.842226
0.710229 0.538705 0.349425 0.223982 -0.063934 0.972494
-0.473398 0.084056 0.185388 0.029873 -0.821660 0.569195
-0.374664 0.191982 0.291604 0.910870 -0.313524 0.268362
-0.479977 -0.541103 -0.512208 -0.453146 -0.515985 0.726924
0.332618 0.220483 -0.087967 -0.151203 0.977199 -0.149060
-0.434244 -0.064668 -0.008450 -0.984316 0.158770 -0.076898
0.486917 -0.135202 -0.055506 0.120277 -0.987905 -0.097862
0.414473 -0.085557 0.140523 -0.537191 -0.215254 0.815531
-0.539628 0.425184 0.340702 -0.392154 0.661997 0.638730
-0.398272 -0.146110 0.091537 -0.896963 0.007491 0.442043
-0.249152 -0.328705 -0.185608 -0.368558 -0.787681 0.493685
0.313962 0.102181 -0.207304 0.249519 0.432115 -0.866613
0.688006 0.462150 0.299180 0.449976 0.348872 -0.822076
0.238625 -0.190993 -0.143636 0.563104 -0.525854 -0.637489
0.571953 0.166694 0.094552 0.059437 0.563111 0.824241
-0.413162 0.157948 0.270754 0.435588 -0.899733 -0.027274
-0.220149 0.203830 0.154285 0.168963 0.189979 0.967140
0.363637 -0.118804 -0.229857 -0.740932 -0.598124 -0.305399
-0.362016 -0.204265 -0.234360 -0.731461 -0.343354 -0.589129
-0.239010 0.322348 0.097007 0.883146 0.465835 0.055235
0.594345 -0.049485 -0.202475 0.503300 -0.032534 -0.863499
-0.588121 0.203662 0.382210 -0.982462 -0.105111 -0.154011
-0.501702 0.079267 0.215349 0.428948 -0.867725 0.251111
0.630580 0.122182 0.125550 0.246992 0.485603 0.838561
-0.416655 0.018053 0.121753 -0.579696 -0.476837 0.660741
-0.552124 0.298302 0.024005 -0.720616 0.502738 -0.477459
-0.561424 0.337940 0.076273 -0.617362 0.439433 -0.652505
0.564973 -0.342031 -0.209517 0.679648 -0.692657 0.241465
-0.176302 -0.096612 -0.351002 0.248609 0.268211 -0.930729
-0.784278 0.363389 0.229088 -0.387054 -0.595226 -0.704198
-0.375359 -0.083226 -0.273871 -0.959230 -0.153905 -0.237048
-0.302183 0.297878 -0.100471 -0.192154 0.800565 -0.567602
-0.231078 0.367747 0.380166 -0.205745 -0.869841 0.448382
0.768769 0.312833 0.139991 -0.632748 -0.773673 0.032546
-0.452562 0.008932 0.070341 -0.642836 -0.690477 0.331668
0.410628 -0.141255 0.079999 -0.048275 -0.995583 0.080519
0.600560 0.424187 0.289454 -0.626245 0.182524 -0.757959
-0.050790 -0.105285 -0.304378 -0.002251 -0.037243 -0.999304
0.148112 0.137400 0.073784 0.098841 0.786688 0.609387
-0.521460 0.167489 0.020453 -0.976450 -0.208177 -0.056629
-0.379269 0.435612 0.230286 0.380530 0.851242 0.361364
-0.016027 0.024797 -0.310665 0.238809 0.043352 -0.970098
-0.391423 -0.341656 -0.458878 -0.312990 0.397798 -0.862435
-0.083573 -0.040108 0.145292 0.470827 -0.152983 0.868860
-0.594969 0.240617 0.285355 -0.927003 -0.342833 -0.152086
0.733943 0.287534 0.059947 -0.099362 -0.949019 0.299150
-0.568779 0.455211 0.284865 -0.495750 0.594384 0.633198
-0.241520 0.090895 0.177554 0.306391 -0.112084 0.945284
0.371434 0.202574 0.059389 -0.090674 0.890982 0.444892
-0.529282 0.444735 0.227528 0.080568 0.846933 -0.525560
-0.542929 0.240855 -0.002259 -0.945880 0.006578 -0.324449
-0.284349 0.249477 0.225519 0.641869 -0.082428 0.762371
0.388480 -0.502785 -0.313357 0.496710 -0.867403 -0.029844
-0.571681 0.292192 0.113687 -0.939354 -0.326199 -0.105870
-0.086363 0.231218 -0.147119 0.218374 0.696540 -0.683480
0.625939 -0.206634 0.100625 0.073689 -0.623399 -0.778424
-0.571940 0.282772 0.144988 -0.771757 -0.583868 -0.251970
-0.504454 0.068599 0.156273 -0.497249 -0.734139 0.462368
0.654579 -0.034600 -0.050273 0.812282 -0.543697 0.211167
0.771024 0.311482 0.151723 -0.632748 -0.773673 0.032546
-0.342682 0.442251 0.549640 -0.790468 -0.212158 -0.574586
0.476623 0.204447 0.046634 0.069436 0.872982 0.482784
-0.301049 -0.036413 0.173427 0.036253 -0.048906 0.998145
-0.186652 -0.306599 -0.118823 -0.159827 -0.970957 0.178041
0.629655 -0.249518 0.136198 -0.426815 -0.698785 -0.574046
0.406704 -0.110034 0.125130 -0.472938 -0.470501 0.744955
0.681786 0.050308 -0.016751 0.935778 -0.026087 -0.351624
0.071917 -0.019921 -0.305329 0.218721 0.065076 -0.973615
-0.513964 0.077270 0.247746 0.145572 -0.989031 -0.025017
0.585508 -0.422649 0.246977 -0.707607 0.701020 0.088669
-0.030815 0.042136 0.137404 -0.083644 0.299333 0.950475
-0.443526 0.357055 -0.015400 -0.349579 0.594731 -0.723940
0.571335 -0.206935 -0.081933 -0.617693 0.134477 -0.774837
-0.235930 -0.299402 -0.122825 -0.124313 -0.982532 0.138481
0.277919 -0.526595 -0.329716 -0.804514 0.471452 -0.361235
0.406199 0.176280 0.111388 0.048074 0.885750 0.461667
-0.167189 -0.305300 -0.094268 -0.159827 -0.970957 0.178041
0.390489 -0.152708 -0.066335 0.197352 -0.960237 -0.197478
-0.629163 0.326621 0.319959 -0.881525 0.470698 -0.036828
0.320520 0.190433 0.066121 -0.197049 0.926297 0.321163
0.517949 0.181047 0.083003 0.069436 0.872982 0.482784
0.143855 0.026572 0.143985 0.194513 0.345870 0.917899
0.063582 -0.045383 0.160911 -0.092293 0.123331 0.988064
-0.559672 0.253953 0.127563 -0.950376 -0.311013 -0.007512
0.365803 -0.451395 -0.346940 0.266401 0.675488 -0.687566
0.370757 -0.164416 -0.028355 0.364092 -0.887040 0.283897
-0.270845 -0.088402 -0.359559 -0.082061 0.383507 -0.919885
-0.366553 -0.264481 -0.100361 -0.724318 -0.643763 -0.246845
0.614209 -0.181984 -0.070189 0.969554 -0.131572 -0.206527
-0.129850 -0.232930 0.052222 0.045183 -0.723728 0.688605
-0.186492 -0.297998 -0.068484 -0.124313 -0.982532 0.138481
0.260287 -0.069191 0.121513 0.182387 -0.137567 0.973555
-0.271923 -0.168291 0.140537 0.132181 -0.340421 0.930936
0.626996 0.056794 0.152740 0.591234 0.145134 0.793334
0.330292 0.114525 -0.208576 -0.711746 0.169667 -0.681639
-0.235194 0.405326 0.472823 0.889576 -0.307810 0.337502
-0.622275 -0.526556 -0.036408 0.065908 0.304253 0.950309
-0.364736 -0.196375 -0.235581 -0.731461 -0.343354 -0.589129
0.146418 -0.196319 0.096142 0.249060 -0.747927 0.615284
-0.158194 0.275566 -0.119519 0.187137 0.702143 -0.687005
0.466046 -0.081269 0.175626 -0.537191 -0.215254 0.815531
0.059582 0.079822 -0.278042 0.171932 0.520814 -0.836177
-0.500362 0.435481 0.168374 -0.318029 0.926125 0.202852
-0.478317 0.445928 0.155243 -0.318029 0.926125 0.202852
-0.616848 0.417910 0.199850 -0.040945 0.680057 -0.732015
-0.490402 -0.026794 -0.073239 -0.974231 -0.102189 0.201074
-0.510513 -0.356403 -0.028613 -0.350745 0.825714 -0.441786
-0.589062 0.399218 0.180134 -0.077436 0.834322 -0.545811
0.090516 -0.265452 -0.030758 0.199889 -0.931353 0.304346
-0.494823 0.063577 0.147477 0.100623 -0.924435 0.367824
-0.246279 -0.221858 -0.306200 0.364713 -0.699848 0.614164
0.188950 -0.197573 -0.179882 0.239265 -0.720240 -0.651158
-0.289489 -0.293165 -0.367639 0.543152 -0.609677 0.577303
-0.029623 -0.266041 0.006470 0.024852 -0.935308 0.352960
-0.774459 0.434700 0.387694 0.963069 -0.135795 0.232504
-0.314581 0.406545 0.549561 -0.606597 -0.790182 0.087475
-0.492658 0.116876 -0.061648 -0.851015 -0.174013 -0.495473
0.249904 -0.017914 0.129378 0.093471 -0.122672 0.988036
-0.457267 0.186225 0.424574 0.831907 -0.233495 0.503400
-0.394621 -0.239628 -0.081937 -0.911328 -0.407738 -0.056842
-0.085063 0.153541 -0.233309 0.039020 0.848664 -0.527491
0.676807 -0.115752 0.075742 0.892224 -0.417405 -0.172363
-0.209440 -0.269476 0.060123 0.516952 -0.498780 0.695686
0.361841 -0.513456 -0.323276 0.347074 -0.928772 -0.130083
-0.394024 0.034241 0.146269 -0.053088 -0.726108 0.685528
0.606777 0.474470 0.301639 -0.574328 0.391586 -0.718894
0.588715 0.479767 0.327895 -0.842381 0.462411 -0.276715
-0.297566 -0.309231 -0.374904 0.492487 -0.544080 0.679289
-0.116540 -0.294950 -0.046287 0.116964 -0.991423 0.058316
-0.174599 -0.167682 -0.318180 0.405574 -0.824314 -0.394988
0.637420 0.188637 0.055069 0.841114 0.501734 0.201967
0.675645 0.513725 0.350121 0.139943 -0.431406 0.891238
-0.016899 -0.047682 0.147651 -0.285721 -0.056310 0.956657
-0.301961 -0.221433 0.113981 0.068687 -0.458493 0.886040
0.403634 0.124500 0.146893 -0.091545 0.038287 0.995065
-0.283455 -0.281619 -0.024236 0.049050 -0.991538 0.120197
-0.127685 0.285134 -0.052304 0.423477 0.904431 -0.051693
-0.227063 -0.076951 0.168045 -0.030487 -0.345371 0.937971
-0.409009 0.279833 -0.095239 -0.297943 0.601882 -0.740924
0.792737 0.319249 0.204030 0.737509 -0.214835 0.640255
0.314719 -0.101490 -0.221266 0.180368 -0.939149 -0.292345
0.338355 -0.177090 -0.026398 0.364092 -0.887040 0.283897
-0.258897 0.206072 -0.197972 -0.034330 0.535426 -0.843884
0.586893 0.255773 -0.013987 -0.321231 0.791937 -0.519275
-0.588924 0.422869 0.314976 -0.623138 0.428085 0.654556
0.488521 -0.211419 -0.249691 0.301123 -0.400125 -0.865578
-0.151062 0.221188 -0.178013 0.218374 0.696540 -0.683480
-0.164939 0.248525 0.110009 0.412285 0.556834 0.721081
-0.042188 -0.139843 0.111130 -0.139288 -0.392707 0.909054
0.402706 0.158776 0.128273 0.078439 0.653023 0.753265
-0.594415 0.366302 0.361910 -0.491659 0.603878 0.627377
0.577221 -0.150885 -0.184014 0.692692 -0.660557 0.289556
0.625626 -0.442277 0.181238 0.009566 0.011988 -0.999882
-0.112745 -0.296575 -0.169290 0.440735 -0.270387 -0.855946
0.089176 -0.270844 -0.056092 0.183890 -0.981248 0.057772
0.413048 -0.471284 -0.288202 0.524911 -0.850991 0.016811
0.000592 -0.170684 0.104362 -0.139288 -0.392707 0.909054
0.558004 -0.164482 -0.162682 -0.112469 -0.729632 0.674527
0.436267 -0.432851 -0.323924 0.695262 0.343956 -0.631114
-0.303552 0.381012 0.229814 0.882954 0.372054 0.286302
-0.233511 0.330653 0.012313 0.367116 0.926232 -0.085562
0.504361 0.169160 0.106452 0.069436 0.872982 0.482784
-0.496371 0.009394 -0.027866 -0.887799 0.301300 -0.347895
-0.125525 0.252993 -0.133691 0.187137 0.702143 -0.687005
0.590227 -0.097074 0.184116 0.168903 0.167223 0.971344
-0.701142 0.343916 0.105296 0.006257 0.696609 -0.717423
-0.256261 0.283892 0.185224 0.905430 0.083456 0.416211
0.609221 -0.218044 0.108180 0.073689 -0.623399 -0.778424
-0.397786 0.439553 0.098132 0.136281 0.910105 -0.391326
0.591992 -0.411076 0.212407 -0.707965 0.682178 0.182805
-0.515555 0.150752 -0.010431 -0.957520 -0.208910 -0.198776
-0.415371 0.453491 0.199567 0.149612 0.948686 0.278589
0.368114 0.188387 0.087125 -0.090674 0.890982 0.444892
0.487835 -0.170130 0.144841 -0.661712 -0.421495 0.620064
0.653786 0.159933 -0.008073 0.881634 0.405223 -0.241902
-0.377312 0.396896 -0.001290 0.096945 0.791742 -0.603114
0.580360 -0.102285 -0.207435 0.464627 -0.273453 -0.842226
0.044818 -0.262260 -0.148792 0.176052 -0.879113 -0.442907
-0.469197 0.048562 -0.081629 -0.828989 -0.285089 -0.481147
-0.582097 0.140187 0.394399 -0.535498 -0.741411 -0.404416
0.562575 -0.493727 0.198853 -0.424552 0.286938 -0.858733
-0.289572 0.287573 -0.115029 -0.177445 0.719210 -0.671752
-0.345930 0.422204 0.114662 0.129637 0.976002 -0.174969
-0.458322 -0.357577 0.033415 -0.418355 -0.109459 0.901664
-0.065729 -0.087294 -0.305494 0.029432 0.014837 -0.999457
-0.373802 -0.336539 -0.374771 -0.281342 0.089846 0.955392
0.244052 -0.029030 0.128552 0.093471 -0.122672 0.988036
0.205003 0.196565 -0.002571 -0.170624 0.823232 0.541458
-0.382319 0.450410 0.308268 0.208698 0.976622 0.051524
0.407600 0.212908 -0.120099 0.051703 0.990863 -0.124570
-0.338488 -0.277390 -0.140131 -0.514380 -0.815973 0.263820
-0.776572 0.444277 0.397358 0.743959 0.590384 -0.313005
0.713455 0.324766 0.265739 0.203740 -0.756848 0.621024
0.068506 0.039580 0.144792 -0.007537 0.396141 0.918159
0.724005 0.327671 0.038692 -0.272438 0.955721 -0.111246
0.646326 0.208079 -0.023419 0.950790 0.243852 -0.191138
0.241939 -0.171015 -0.164854 0.445523 -0.725190 -0.524985
-0.483800 0.397850 0.394052 -0.289175 0.651348 0.701515
-0.177906 0.199862 -0.206334 0.060531 0.605862 -0.793264
0.330235 -0.158026 0.043337 0.354494 -0.884168 0.304270
0.560662 0.163253 -0.158743 0.236462 0.642689 -0.728722
0.012345 -0.248005 -0.190390 0.190018 -0.875074 -0.445127
-0.136089 -0.255961 0.022180 0.118363 -0.894721 0.430656
0.373044 0.001825 0.136890 -0.486362 0.128384 0.864274
0.179174 -0.266799 -0.103552 -0.222444 -0.965192 0.137563
-0.464482 0.118068 0.275949 0.722764 -0.665545 0.186177
0.420849 -0.444240 -0.266847 0.207367 -0.078721 0.975091
0.770086 -0.256924 0.151686 0.780908 0.591139 -0.201835
0.643505 -0.101340 0.013649 0.519043 -0.606894 -0.601892
-0.591061 0.228578 0.288676 -0.927003 -0.342833 -0.152086
-0.459862 -0.110600 -0.150014 -0.530262 0.118452 -0.839518
-0.430696 0.451639 0.168836 -0.071847 0.985482 -0.153828
-0.135239 0.267648 -0.121359 0.187137 0.702143 -0.687005
-0.009854 0.131906 0.089461 0.072414 0.625020 0.777243
-0.122205 -0.159638 -0.295433 -0.045688 -0.382079 -0.923000
0.206682 0.193990 -0.133706 -0.072532 0.922426 -0.379302
0.408085 -0.440296 -0.334231 0.223267 0.374689 -0.899867
-0.022982 -0.222821 0.078042 -0.125000 -0.678378 0.724001
-0.269137 0.326338 0.282007 0.081244 -0.716547 -0.692791
0.691552 0.110057 -0.078638 0.663483 0.451631 -0.596506
-0.333989 -0.238146 0.099970 -0.147097 -0.462534 0.874314
-0.353401 0.301805 0.313424 0.985825 0.165391 0.028184
0.262933 0.093201 -0.222178 0.184749 0.167672 -0.968377
0.665530 0.146326 0.065059 0.939891 0.340309 -0.028185
-0.590134 0.184221 0.411836 -0.991740 0.034624 -0.123505
0.549545 -0.128735 -0.058882 -0.047115 -0.866342 -0.497224
-0.230372 -0.042241 0.180718 -0.030487 -0.345371 0.937971
-0.191462 -0.223580 0.094047 0.598896 -0.711547 0.367458
-0.356008 0.432189 0.144747 0.727586 0.685933 0.010716
0.158313 0.166991 0.033929 0.098841 0.786688 0.609387
0.472769 -0.168787 -0.143641 -0.015994 -0.480230 0.876997
0.690775 0.111612 0.038801 0.992761 0.120058 -0.003535
0.481667 -0.139381 -0.022813 0.142486 -0.982984 -0.115932
-0.588285 0.390034 0.343870 -0.491659 0.603878 0.627377
-0.415737 -0.031508 -0.206974 -0.825551 -0.236872 -0.512208
-0.590087 0.248654 0.390488 -0.944481 0.088818 0.316334
0.134425 0.180731 0.020066 0.098841 0.786688 0.609387
0.447050 0.042521 0.170620 0.020626 0.533042 0.845837
0.618512 0.238979 -0.034707 0.007296 0.490401 -0.871466
-0.177228 0.056925 0.178724 0.219737 0.252912 0.942206
-0.167456 -0.159385 0.127041 0.493492 -0.571911 0.655273
0.078819 -0.200856 -0.231457 0.301986 -0.810994 -0.501092
0.009115 -0.224078 -0.224407 0.193987 -0.694149 -0.693200
0.535115 -0.164335 0.080162 -0.256714 -0.836648 -0.483858
0.647979 0.029564 0.142084 0.591234 0.145134 0.793334
0.241711 -0.182667 -0.148953 0.445523 -0.725190 -0.524985
-0.445376 -0.480824 -0.552537 -0.059040 0.728448 -0.682553
0.564555 -0.268141 -0.194689 -0.165438 -0.046133 0.985141
-0.093584 0.039651 -0.302378 -0.052828 0.145436 -0.987956
-0.275597 0.433521 0.488164 -0.114824 0.947373 -0.298831
-0.319959 -0.354342 -0.410751 0.839787 -0.517563 0.163973
-0.329177 -0.318492 0.069370 0.057771 -0.608353 0.791561
-0.241513 0.391016 0.477995 0.877833 -0.228963 0.420697
0.491737 -0.156256 -0.129004 0.014627 -0.869079 0.494457
-0.447806 -0.388605 0.026459 0.171311 -0.554680 0.814238
0.503406 -0.154310 -0.126707 0.187599 -0.912659 0.363127
0.697178 -0.024548 0.095669 0.863505 0.053902 0.501452
-0.515324 0.145858 0.131857 -0.846339 -0.521897 0.106457
-0.561133 0.239870 0.452243 -0.650186 0.583050 0.487146
0.206861 0.045910 -0.249193 0.339567 0.134296 -0.930945
-0.730683 0.347768 0.114393 -0.597553 -0.611263 0.518930
-0.264596 0.352918 0.033208 0.583260 0.744280 -0.325354
0.146607 0.158783 -0.195426 0.172389 0.703262 -0.689714
0.093723 -0.121154 -0.291777 0.367561 -0.046322 -0.928845
0.295698 0.207903 -0.128822 -0.164676 0.972236 -0.166250
-0.587851 -0.491112 -0.076626 0.133539 0.420501 -0.897411
-0.578507 0.259417 0.413973 -0.880617 0.094859 0.464237
-0.061547 0.232803 0.051665 0.466680 0.621754 0.628992
0.363016 -0.132036 -0.161995 -0.783668 -0.609247 0.121176
0.696053 0.283204 0.049997 -0.199659 -0.212199 0.956612
0.302645 0.094678 0.111199 -0.088647 0.147441 0.985090
0.376997 -0.509799 -0.300626 0.496710 -0.867403 -0.029844
-0.521897 0.274870 -0.026808 -0.334467 0.325735 -0.884324
-0.588816 0.232432 0.347226 -0.974583 0.096378 -0.202237
0.369830 -0.493699 -0.281190 0.142009 -0.123361 0.982148
0.290023 0.076348 -0.219921 0.201477 0.182246 -0.962389
-0.433220 -0.474183 -0.545502 0.028105 0.787342 -0.615875
-0.605075 0.328039 0.168163 -0.736766 -0.274605 0.617873
-0.363944 0.470133 0.593288 0.550285 0.129661 0.824848
0.607005 0.133644 -0.153773 0.583853 0.276394 -0.763362
-0.260257 0.173412 -0.228065 -0.133172 0.696039 -0.705546
-0.256365 -0.219778 0.115589 -0.170566 -0.617414 0.767924
-0.225519 0.175859 0.160717 0.168963 0.189979 0.967140
-0.223813 0.059766 0.175655 -0.053636 0.291369 0.955106
-0.681718 -0.568700 -0.040178 -0.000000 -1.000000 -0.000000
-0.309010 0.394141 0.209444 0.684544 0.710042 0.165048
-0.429247 0.064340 -0.160549 -0.990732 0.015100 -0.134987
-0.355682 0.323236 0.324197 0.970572 0.121027 0.208190
-0.323009 0.405462 0.072748 0.569918 0.782784 -0.249885
0.244696 -0.100118 -0.236986 0.367482 -0.323165 -0.872079
-0.509057 0.089612 0.130909 -0.894573 0.383611 -0.229308
0.509190 -0.270641 -0.188251 -0.153020 -0.104340 0.982699
0.692308 0.389474 0.286528 0.935453 0.343634 0.082728
0.367497 -0.465735 -0.355870 0.421422 0.437656 -0.794267
0.228266 -0.205246 0.024341 0.351580 -0.885681 0.303252
0.568985 -0.129382 -0.065787 -0.707096 0.170739 -0.686194
0.172345 -0.226154 0.022006 0.317066 -0.888215 0.332481
0.638654 -0.147223 0.179201 0.245812 -0.097931 0.964358
-0.241582 -0.237329 -0.338668 0.738461 -0.640584 0.210542
0.442839 0.218168 -0.089504 -0.066048 0.910783 -0.407568
0.357501 0.162930 0.116675 -0.329709 0.643752 0.690562
0.497886 -0.229072 -0.174388 0.403231 -0.056933 0.913326
0.414229 -0.145910 -0.123419 -0.387523 -0.763096 0.517215
0.666039 0.356980 0.301024 -0.194460 -0.558100 0.806666
-0.337947 0.273713 -0.129309 -0.311445 0.591281 -0.743901
-0.342489 -0.261474 -0.337371 -0.416454 -0.467233 0.779910
-0.013665 -0.285474 -0.105022 0.136502 -0.988755 0.061082
0.207108 0.029037 0.136842 0.031910 0.397843 0.916898
-0.436401 -0.223729 -0.183706 -0.839899 -0.017810 -0.542450
0.606083 -0.105628 -0.119142 0.653734 -0.742628 0.145380
-0.209707 0.307633 -0.069212 0.020508 0.997223 -0.071598
-0.243538 0.309034 0.157844 0.896915 0.188734 0.399903
0.581398 0.035051 0.178051 0.360946 0.044109 0.931543
0.253232 -0.050406 0.125029 0.093471 -0.122672 0.988036
-0.755333 0.356662 0.218864 -0.387054 -0.595226 -0.704198
0.134463 0.085479 -0.265744 -0.073440 0.575293 -0.814644
-0.242514 -0.224502 -0.268834 0.343818 -0.826766 -0.445251
-0.159627 -0.028510 -0.344097 0.564773 0.320482 -0.760475
-0.368945 -0.260733 -0.356091 -0.754295 -0.241791 0.610389
0.429347 -0.460704 -0.292758 0.597179 -0.775166 0.206142
0.280583 -0.525697 -0.317325 -0.921748 0.122526 0.367923
-0.010485 0.201187 0.049685 0.267927 0.511532 0.816425
0.529385 0.229943 -0.060469 -0.026719 0.944198 -0.328293
-0.361583 0.104058 -0.245194 -0.809621 0.265531 -0.523457
0.155065 0.219671 -0.041741 -0.009822 0.867692 0.497006
0.073843 -0.142109 -0.286794 0.143528 -0.356051 -0.923378
-0.363745 0.226190 0.304390 0.680397 -0.519070 0.517326
-0.117771 -0.242700 0.041170 0.045317 -0.720827 0.691633
-0.413736 0.395621 0.013825 -0.212234 0.668816 -0.712490
-0.092253 -0.217315 -0.251851 0.090406 -0.659758 -0.746020
0.580675 -0.506563 0.285137 0.233291 0.205689 0.950404
-0.374377 0.358251 -0.046275 -0.077473 0.689208 -0.720410
0.040855 0.019199 -0.306641 0.052916 0.373222 -0.926232
0.057970 -0.271139 -0.126041 0.086998 -0.839924 -0.535686
0.241468 -0.050065 -0.245476 0.269602 -0.105863 -0.957135
0.375550 0.214163 -0.124501 0.098895 0.990888 -0.091437
0.579875 -0.216450 -0.024617 -0.489715 -0.289017 0.822586
0.761005 0.341730 0.196587 -0.484736 0.821629 -0.299927
0.504182 -0.113523 -0.250598 0.664002 0.104866 -0.740341
-0.576627 0.239692 0.431777 -0.650186 0.583050 0.487146
-0.178746 0.063539 -0.304651 0.151592 0.360768 -0.920253
-0.038730 -0.077654 0.140604 -0.242405 -0.319357 0.916106
0.525730 -0.237947 -0.187234 0.403231 -0.056933 0.913326
0.632145 0.079550 -0.155232 0.588886 0.330279 -0.737651
-0.389796 -0.188538 -0.199257 -0.848754 -0.383134 -0.364451
0.280642 -0.031806 -0.234786 0.312183 0.042280 -0.949081
-0.031391 0.247723 -0.083796 0.371221 0.922439 -0.106305
0.527690 -0.330375 -0.261093 0.271821 0.041861 -0.961437
-0.320626 -0.286104 -0.046062 0.049050 -0.991538 0.120197
0.402998 0.205256 -0.157638 0.102499 0.816142 -0.568689
-0.337750 -0.045254 0.167536 -0.656841 0.217256 0.722052
0.014870 0.169380 -0.200435 0.039020 0.848664 -0.527491
0.534704 -0.251506 -0.249711 0.205178 0.286473 -0.935861
0.143028 0.052395 0.134430 0.194513 0.345870 0.917899
-0.296546 0.392227 0.160695 0.742134 0.620876 0.252487
-0.134898 -0.155731 0.092829 0.274543 -0.538856 0.796405
-0.184040 0.020740 -0.322933 0.008328 0.537851 -0.842999
0.674466 -0.221996 0.186164 -0.015928 0.411036 0.911480
0.434296 -0.136337 -0.265914 -0.226984 -0.454258 -0.861469
0.614763 0.450296 0.286104 -0.753917 0.139480 -0.641993
-0.441032 -0.142656 -0.017759 -0.847614 -0.523494 0.086628
0.365441 -0.142829 0.070550 0.196933 -0.977200 0.079352
-0.400587 -0.340456 0.056024 -0.097114 -0.404909 0.909185
-0.464455 0.434447 0.089338 -0.316517 0.835346 -0.449460
-0.329838 -0.272132 -0.421111 0.035191 0.334634 -0.941691
-0.349843 0.468088 0.570125 0.589170 0.806170 -0.054489
0.591511 -0.142358 0.030766 0.387355 -0.740430 -0.549290
0.700085 0.548772 0.326136 0.309157 0.244137 -0.919140
-0.193401 0.306263 0.064449 0.431626 0.827724 0.358569
0.121327 -0.225323 -0.184293 0.248039 -0.615285 -0.748266
0.583736 -0.522846 0.279456 0.453502 -0.859694 0.235078
-0.384876 -0.036320 -0.263159 -0.960008 -0.124569 -0.250734
-0.037817 -0.063379 0.142741 -0.196630 -0.087876 0.976532
-0.220151 0.239345 0.144985 0.862314 0.004669 0.506352
0.446009 0.234664 -0.043614 0.003261 0.944718 -0.327869
0.689880 -0.090891 0.098776 0.978106 -0.200397 0.056124
-0.263363 -0.287576 -0.214970 0.155635 -0.354851 -0.921878
-0.163246 -0.315379 -0.145600 -0.111803 -0.731870 0.672210
-0.453965 -0.549241 -0.568408 0.115429 -0.794650 -0.595992
-0.210721 -0.178486 0.128119 0.132181 -0.340421 0.930936
-0.725482 0.371217 0.184539 -0.125861 -0.413919 -0.901571
0.159659 0.181528 -0.163726 -0.014340 0.933475 -0.358355
0.230841 -0.123420 -0.233003 0.422238 -0.683381 -0.595572
0.610675 -0.202016 -0.039590 0.536867 -0.262002 0.801953
-0.288017 0.210041 0.221331 0.296145 -0.208103 0.932197
0.005124 -0.148173 -0.297764 0.083147 -0.104258 -0.991068
-0.334405 -0.125228 0.154455 -0.154250 -0.303927 0.940125
-0.528470 0.113688 0.325998 -0.743386 -0.645660 -0.174642
0.582474 -0.169515 0.066607 -0.100933 -0.792647 -0.601268
-0.007904 0.190332 -0.168020 0.041780 0.852823 -0.520525
-0.202154 -0.206594 0.110813 0.286453 -0.556693 0.779768
-0.304323 0.264212 -0.146826 0.001983 0.841451 -0.540330
0.531426 -0.140574 0.192380 -0.352572 -0.128546 0.926914
0.633135 0.280239 0.025935 -0.510549 0.435353 0.741490
-0.111490 -0.205660 -0.264113 0.086665 -0.648433 -0.756323
-0.143017 0.032384 0.173115 0.285677 0.077301 0.955203
0.550965 -0.139015 -0.037557 -0.739582 0.540510 0.401083
-0.231285 0.327706 -0.012675 0.358680 0.930589 -0.073162
0.395152 -0.078885 -0.262871 -0.180054 -0.076482 -0.980679
0.329880 -0.171861 0.001057 0.360441 -0.891289 0.275112
-0.340720 -0.296628 -0.432122 0.232235 0.657664 -0.716621
0.013229 -0.281322 -0.097903 0.136502 -0.988755 0.061082
-0.353410 0.236351 0.299223 0.924905 -0.184438 0.332466
-0.447105 0.009690 -0.122432 -0.964268 -0.034028 -0.262733
-0.485120 -0.521685 -0.587268 -0.466349 0.686300 -0.558132
-0.811330 0.388594 0.303905 -0.983572 -0.047467 -0.174163
-0.125439 0.266851 -0.119504 0.187137 0.702143 -0.687005
-0.534953 0.198155 0.066843 -0.939884 -0.331021 -0.083919
-0.323142 -0.298244 0.083149 0.084247 -0.055091 0.994921
0.662742 0.035747 -0.136352 0.948035 -0.282375 -0.146609
-0.391119 -0.309077 -0.032374 -0.144342 0.030215 -0.989066
0.584192 0.204087 -0.093122 0.165905 0.841385 -0.514341
0.226318 -0.209107 -0.139565 0.563104 -0.525854 -0.637489
-0.283784 -0.232860 -0.296465 0.364713 -0.699848 0.614164
0.101123 0.098495 0.105325 0.008383 0.591174 0.806500
-0.385458 0.381581 -0.022552 0.196548 0.813964 -0.546655
-0.071004 0.131071 -0.246918 0.141238 0.496911 -0.856231
0.301818 -0.502229 -0.300323 -0.690811 0.126141 0.711947
-0.628748 0.346186 0.121986 0.519185 0.265463 -0.812390
-0.376651 0.466847 0.590715 -0.892585 -0.439756 -0.099537
0.548321 -0.235005 -0.193745 0.252263 -0.115040 0.960796
0.289290 -0.154696 -0.146638 0.452565 -0.708400 -0.541622
-0.068669 0.082412 -0.275301 0.112877 0.532124 -0.839109
-0.479730 -0.004280 -0.074002 -0.805584 0.413222 -0.424597
-0.344889 -0.140745 0.147718 -0.154250 -0.303927 0.940125
-0.116026 0.280856 -0.031656 0.423477 0.904431 -0.051693
-0.338890 0.458699 0.554279 -0.226153 0.713453 -0.663205
0.278250 0.139533 -0.190223 -0.196355 0.697659 -0.688997
-0.534648 0.260978 0.452886 0.084221 0.360302 0.929026
0.679997 0.130112 -0.037576 0.940851 0.249108 0.229663
-0.518693 -0.455701 -0.020656 0.485797 -0.712286 0.506606
-0.428275 0.378587 0.002167 -0.212234 0.668816 -0.712490
0.021636 0.068310 -0.287950 0.052916 0.373222 -0.926232
0.318570 -0.129778 -0.163207 0.125307 -0.863089 -0.489261
-0.390208 -0.051195 -0.240010 -0.789711 -0.158584 -0.592627
-0.297358 -0.055658 0.172826 0.059986 -0.017384 0.998048
0.519879 -0.163979 0.182423 -0.618643 -0.392077 0.680849
-0.377194 -0.255850 -0.164637 -0.662557 -0.663152 0.348205
0.671834 0.269747 -0.018151 0.238495 0.095308 -0.966456
-0.314072 -0.119668 0.155777 0.011809 -0.076095 0.997031
-0.791301 0.352871 0.280860 0.048054 -0.988467 0.143607
-0.177833 0.108651 -0.278377 0.154966 0.496083 -0.854334
-0.456894 0.442709 0.114831 -0.065848 0.992503 -0.102961
-0.091655 -0.242535 -0.225329 0.072178 -0.801064 -0.594211
-0.326934 0.151815 -0.231647 -0.297174 0.685728 -0.664428
-0.214374 -0.251934 -0.230441 0.079562 -0.799403 -0.595503
-0.313689 0.404053 0.186208 0.684544 0.710042 0.165048
0.168821 0.196581 -0.124882 -0.014340 0.933475 -0.358355
-0.254318 0.083877 0.180686 0.097166 0.059401 0.993494
-0.390257 0.059054 0.168542 -0.179399 -0.406190 0.896005
0.160788 0.102091 0.099941 0.097353 0.562109 0.821313
0.349919 0.112482 0.136325 -0.303451 0.044461 0.951809
-0.460096 0.232374 -0.111724 -0.567689 0.397826 -0.720739
0.104823 -0.252186 -0.148149 0.086998 -0.839924 -0.535686
0.259404 -0.199329 -0.118405 0.563104 -0.525854 -0.637489
-0.548483 0.143629 0.307864 -0.742842 -0.650042 -0.160097
-0.083241 -0.280538 -0.167353 0.144609 -0.867517 -0.475924
-0.240247 -0.183363 -0.382988 0.413711 -0.003794 -0.910400
0.533408 -0.132867 -0.227127 0.664002 0.104866 -0.740341
-0.299397 -0.085187 0.168750 0.377852 -0.826253 0.417773
0.283754 0.219484 -0.057560 -0.078623 0.822718 -0.562986
-0.461482 -0.492993 -0.501405 -0.554499 0.012946 0.832083
0.272775 -0.144521 -0.173746 0.452565 -0.708400 -0.541622
-0.562799 0.176093 0.486055 -0.358425 0.358520 0.861971
-0.400899 -0.292993 0.075189 -0.089176 -0.306742 0.947606
0.325034 0.222122 -0.069525 -0.151203 0.977199 -0.149060
-0.015548 -0.029303 -0.310542 0.058171 -0.082287 -0.994910
-0.276141 0.046845 0.181779 0.359071 -0.300917 0.883469
-0.356490 -0.290778 0.081561 -0.130566 -0.135919 0.982079
-0.459224 0.156648 0.430840 0.740283 0.041379 0.671021
-0.254495 -0.209502 0.122836 -0.036271 -0.446822 0.893887
-0.363113 0.439164 0.180650 0.727586 0.685933 0.010716
0.440055 0.196093 0.069850 0.048074 0.885750 0.461667
0.688055 0.027806 0.101531 0.846546 0.390448 0.361815
-0.367607 -0.212522 -0.354795 -0.975913 0.197568 -0.092528
-0.028559 0.101080 0.112235 -0.020795 0.469737 0.882561
-0.470449 0.455171 0.323805 -0.396814 0.913761 0.087062
0.134961 0.148990 0.060954 0.098841 0.786688 0.609387
-0.313984 -0.010085 -0.335319 -0.333041 0.123449 -0.934796
0.666585 0.143186 0.048626 0.815731 0.576738 -0.044241
-0.411592 -0.345171 -0.408306 -0.959608 0.265996 0.091646
-0.292159 0.123978 0.185924 0.133736 -0.108828 0.985023
0.530195 -0.106947 0.188292 -0.193831 0.135980 0.971565
-0.375096 -0.449608 -0.479622 0.999810 -0.019130 -0.003616
0.133022 0.215586 -0.081582 0.185600 0.862097 -0.471530
0.216327 0.174470 0.034590 -0.170624 0.823232 0.541458
0.220592 -0.157623 -0.200206 0.444410 -0.696193 -0.563751
0.477556 -0.011623 -0.251854 0.226349 0.193901 -0.954551
-0.322695 -0.278892 0.084916 -0.106562 -0.236031 0.965885
-0.593542 0.162067 0.432840 -0.940064 -0.179119 -0.290166
-0.375971 -0.309511 -0.034598 -0.144342 0.030215 -0.989066
0.511515 0.018946 -0.236087 0.457150 0.124575 -0.880622
0.689809 0.413163 0.311561 0.990547 0.085211 0.107500
-0.189579 0.132771 -0.257936 0.039640 0.490054 -0.870791
-0.214293 0.353676 0.368018 -0.483187 -0.848771 0.214750
-0.625631 0.314328 0.342017 -0.831442 0.258271 0.491935
-0.190153 0.087898 -0.292662 0.154966 0.496083 -0.854334
-0.504907 0.179986 0.494714 -0.775046 0.073083 0.627665
0.347852 -0.055984 -0.239768 -0.606281 -0.159352 -0.779122
-0.389930 0.056038 -0.233847 -0.879038 0.077350 -0.470434
-0.081934 0.221161 -0.155954 0.218374 0.696540 -0.683480
-0.460759 0.140296 0.416743 0.677749 -0.053655 0.733333
-0.198529 -0.166606 -0.360513 0.559642 -0.601485 -0.570102
-0.760185 0.387688 0.307186 0.773552 0.612969 0.160893
-0.488614 0.128624 -0.072721 -0.851015 -0.174013 -0.495473
-0.405314 -0.180506 -0.180437 -0.653515 -0.257157 -0.711891
0.549440 0.141271 0.135089 0.149161 0.805991 0.572826
0.151628 -0.184519 0.103049 0.049388 -0.389805 0.919572
-0.307228 0.403651 0.310836 0.568775 0.677232 -0.466746
0.198868 -0.060984 0.144075 0.461506 0.048240 0.885824
0.804915 0.308671 0.156691 0.677411 -0.723260 0.134201
-0.216151 0.292162 -0.107776 0.173347 0.776975 -0.605194
-0.086205 -0.196427 -0.269245 0.084630 -0.651170 -0.754198
-0.700412 0.394970 0.183525 -0.186800 0.465242 -0.865249
0.646996 -0.344434 0.214846 0.008222 0.278993 0.960258
0.390761 -0.436446 -0.275721 -0.412361 0.141343 0.899989
-0.519964 0.134880 0.489449 0.494300 -0.487199 0.719934
0.494916 -0.153529 0.083257 -0.272446 -0.891996 -0.360716
-0.282590 0.028283 0.176850 0.084484 -0.298401 0.950694
-0.470107 0.043269 0.112020 -0.290765 -0.845357 0.448138
-0.426241 -0.457747 -0.529525 -0.012263 0.633023 -0.774036
-0.271330 0.422369 0.527176 0.720484 0.433175 0.541538
0.029867 -0.160606 -0.288888 0.071025 -0.527485 -0.846590
-0.313605 0.094381 0.178320 0.061780 -0.373709 0.925486
