0.047469 -0.092646 -0.217961 -0.779958 -0.445040 0.440006
0.036588 0.801435 0.429635 0.907635 -0.341982 0.243407
0.117377 0.024817 0.043587 0.956911 0.105880 -0.270391
0.027780 0.673435 0.230625 0.977056 0.052282 -0.206467
-0.177648 -0.381147 0.184284 -0.989364 0.013181 0.144865
0.196000 -0.687206 0.195428 0.114638 0.295755 -0.948360
0.131052 -0.249882 -0.239804 0.367805 -0.349891 0.861566
0.124927 0.101885 0.120358 0.960381 0.130710 -0.246139
-0.029631 0.549998 0.195125 -0.994443 0.053917 -0.090418
-0.024562 0.311504 0.044007 -0.842913 0.358172 -0.401511
-0.071491 -0.116388 0.121531 0.296842 -0.802869 -0.516997
0.051609 -0.097264 -0.084806 0.468953 -0.876674 -0.107355
-0.168160 -0.299416 0.139788 -0.048149 -0.294514 -0.954433
0.108440 -0.047481 0.046744 0.662074 -0.414432 -0.624423
0.150130 -0.043499 0.157140 0.852422 0.325052 0.409534
-0.117342 0.010628 0.040158 -0.961948 0.102575 -0.253247
0.101510 0.079674 -0.220315 0.974518 0.222417 -0.029077
0.136119 -0.018501 0.170075 0.823368 0.113746 0.555991
0.027103 0.764457 0.309110 0.968181 -0.167381 0.186036
0.152483 -0.270728 -0.296625 0.975624 0.213601 0.050320
-0.054389 0.248949 0.139657 -0.909863 0.352392 0.219017
-0.119043 -0.018310 -0.028161 -0.883632 -0.423677 0.199229
0.179138 -0.433550 0.169233 0.999066 0.032971 -0.027947
-0.031112 0.190386 -0.166252 -0.379648 0.876482 -0.296051
0.027546 0.540040 0.184952 0.967232 0.081377 -0.240502
-0.030840 0.032580 0.205555 0.233888 0.091089 0.967987
0.027418 -0.113633 0.144675 -0.246150 -0.930634 0.270798
-0.030252 0.244128 -0.042741 -0.595621 0.692031 -0.407835
-0.045671 0.914572 0.355347 -0.917757 -0.071326 0.390685
-0.147081 -0.242494 -0.296975 -0.836794 0.266239 -0.478428
0.125249 -0.121300 -0.184729 0.309091 -0.381421 0.871195
0.134510 0.079496 0.168265 0.997516 0.062471 -0.032532
0.027764 0.707865 0.271615 0.993378 -0.076467 0.085751
0.160472 -0.505600 0.167230 -0.680783 -0.069544 -0.729176
0.036071 0.832583 0.473155 0.937948 -0.235176 0.254846
0.023025 0.676855 0.216512 0.866565 0.160275 -0.472627
0.129813 0.106511 0.145374 0.977221 0.119726 -0.175230
-0.049574 0.256128 0.033696 -0.852012 0.483027 -0.201894
0.115686 0.020184 -0.255863 0.928594 0.300818 -0.217306
0.013593 0.523493 0.141143 0.940364 0.157300 -0.301617
-0.131625 0.015953 0.074464 -0.905416 0.212545 -0.367487
0.104853 -0.261375 -0.246360 -0.644545 -0.385337 0.660362
0.137924 -0.118493 -0.194595 0.806589 -0.200689 0.556002
-0.125909 0.001730 -0.215307 -0.935640 0.342452 0.085467
-0.076969 -0.077649 0.049356 -0.362257 -0.867128 -0.341845
0.003257 0.355126 0.024050 0.576894 0.393621 -0.715721
-0.010813 -0.169486 -0.395057 -0.139300 -0.223640 0.964666
0.109433 -0.310102 -0.272625 -0.844422 -0.183536 0.503255
0.055935 0.012141 0.211749 -0.154534 -0.022177 0.987738
0.006901 -0.317685 -0.422016 -0.208049 -0.368377 0.906098
-0.051610 0.086755 0.208208 0.461933 0.105912 0.880568
0.000449 0.648333 0.314638 -0.119992 -0.000529 0.992775
-0.013594 0.855171 0.272860 -0.764708 0.471871 -0.438817
0.023850 -0.231815 -0.427089 0.996485 0.018427 -0.081721
0.134568 -0.363806 0.171581 -0.810026 -0.267395 -0.521879
0.121494 -0.283917 0.156779 -0.779234 -0.240200 -0.578876
-0.026599 -0.044177 -0.304582 0.372761 -0.577150 -0.726600
-0.058019 -0.080258 -0.123067 -0.487707 -0.800308 -0.348782
0.192349 -0.607844 0.172965 0.927423 0.205241 -0.312671
0.135700 -0.070580 -0.256492 0.974272 0.159636 -0.159095
-0.046288 0.103618 -0.309247 -0.418116 0.618396 -0.665406
0.144422 -0.194252 -0.280165 0.904798 0.189650 -0.381280
0.014414 0.782862 0.533523 0.743930 -0.668094 0.014823
-0.095847 -0.165348 -0.207432 0.539386 -0.386167 0.748290
0.049303 -0.106276 0.171634 -0.226196 -0.641971 0.732604
0.059540 0.235927 0.135389 0.908189 0.368298 0.198869
-0.140890 -0.285692 0.210832 0.031642 0.179195 0.983305
-0.042876 0.077292 0.204906 0.436496 0.054424 0.898059
-0.011598 0.536377 0.293859 -0.553899 -0.059241 0.830474
-0.009897 0.448464 0.092102 -0.903540 0.269495 -0.333150
0.148189 -0.163165 -0.227999 0.976181 0.059473 0.208648
0.092395 0.198814 0.119840 0.751264 0.641236 0.156264
-0.047765 0.189226 -0.141209 -0.565814 0.764828 -0.308047
-0.011362 0.883979 0.434483 -0.306386 0.873190 0.379034
-0.012855 0.534457 0.142873 -0.943964 0.161326 -0.287934
0.143086 -0.101688 -0.216150 0.993032 0.089235 0.076966
-0.128986 0.024833 -0.104160 -0.898883 -0.267089 -0.347380
0.160467 -0.413971 -0.353873 0.797005 0.014177 -0.603806
-0.038849 0.333824 0.108368 -0.962847 0.179080 -0.202131
-0.153746 -0.296897 0.138290 0.063065 -0.171627 -0.983141
-0.108005 -0.334437 -0.286102 0.820589 -0.244113 0.516762
0.023757 -0.069991 -0.214940 -0.214689 -0.976681 -0.001556
0.133054 0.029906 0.105508 0.933190 0.345939 -0.097376
0.012989 0.647258 0.186814 0.943734 0.071682 -0.322843
0.124752 -0.119974 -0.286608 0.841916 0.030386 -0.538753
0.134274 -0.082533 -0.268165 0.907050 0.008889 -0.420929
0.136128 -0.363602 0.169054 -0.810026 -0.267395 -0.521879
-0.058640 0.178394 -0.145121 -0.653633 0.713020 -0.253706
0.110796 0.032239 -0.258371 0.911310 0.349102 -0.218271
0.154517 -0.045454 0.147346 0.945372 0.221544 0.239144
-0.134499 -0.241494 0.203255 0.073380 0.149322 0.986062
0.138074 -0.290013 -0.262115 0.488487 -0.226772 0.842588
0.095418 -0.259986 -0.293304 -0.973611 -0.089106 -0.210100
-0.046659 0.822867 0.394778 -0.956284 -0.206265 -0.207305
0.032863 0.317250 0.219286 0.953909 -0.057490 0.294539
-0.009179 -0.263523 -0.465146 -0.415974 0.025496 -0.909019
-0.099627 -0.055063 -0.081414 -0.850218 -0.474187 -0.228640
-0.042977 -0.100828 -0.092915 -0.473687 -0.863915 -0.171090
-0.093454 0.050221 0.231799 0.215259 -0.075359 0.973645
-0.182998 -0.626118 -0.311089 0.100189 0.181612 0.978253
0.143601 -0.380993 -0.289418 0.394512 -0.294844 0.870303
0.022088 0.137227 -0.287580 0.364384 0.687380 -0.628278
0.199438 -0.566885 -0.349993 0.882825 0.344279 -0.319517
-0.030267 0.629982 0.227768 -0.995955 0.079853 -0.041197
-0.166307 -0.590963 -0.358823 0.764292 -0.049124 -0.642996
-0.016327 -0.050821 -0.290971 0.220776 -0.806766 -0.548075
-0.111548 -0.025206 -0.010808 -0.923088 -0.328187 0.200503
0.040297 0.314698 0.101573 0.967057 0.192341 -0.166750
-0.013593 0.659092 0.189632 -0.943867 0.121813 -0.307046
0.010678 0.187074 -0.196002 0.075938 0.968195 -0.238396
0.076085 0.010357 0.216500 -0.253859 -0.154168 0.954876
0.157860 -0.229650 0.191299 0.723156 0.273486 0.634232
0.042126 0.319952 0.129411 0.990984 0.132292 -0.021209
0.108857 -0.026440 -0.101576 0.848208 -0.451930 -0.276229
-0.056505 0.856226 0.310084 -0.681721 -0.632396 -0.367875
-0.133972 0.054865 0.193493 -0.981214 -0.050967 0.186066
0.047683 -0.013823 -0.336328 -0.540035 -0.441763 -0.716385
0.146274 -0.143881 -0.223434 0.988560 0.079532 0.128156
0.003530 0.149153 0.204736 -0.005157 -0.374475 0.927223
-0.103214 0.036135 -0.165083 -0.964755 -0.179997 -0.191961
0.149736 -0.056518 0.095994 0.918992 -0.054357 -0.390511
-0.219461 -0.661068 -0.334089 -0.985467 0.117534 0.122636
-0.144084 -0.641543 0.214736 0.957486 -0.061039 0.281949
-0.112281 -0.082973 -0.168280 0.002015 -0.325760 0.945450
-0.214357 -0.732482 0.235324 -0.979986 0.029213 0.196911
-0.066108 0.180763 -0.117398 -0.732269 0.635497 -0.244798
0.127070 -0.147857 -0.286948 0.764157 0.150491 -0.627229
0.047402 0.275179 0.079934 0.914425 0.370768 -0.162353
0.182758 -0.677928 0.222964 0.359230 0.388005 0.848767
0.207895 -0.586205 -0.342302 0.946716 0.319020 0.044213
-0.189623 -0.682788 -0.335542 0.385723 -0.683257 -0.619982
-0.004085 -0.013908 -0.384718 -0.235455 -0.022723 -0.971620
-0.087719 -0.042996 -0.139302 -0.861206 -0.491042 0.131153
0.116584 -0.101408 -0.174480 0.102870 -0.195333 0.975327
0.015013 0.320789 0.025521 0.932233 0.242613 -0.268478
0.026809 0.295812 0.033953 0.837633 0.426791 -0.340912
0.152489 -0.273629 -0.299057 0.952695 0.179166 -0.245504
-0.021960 -0.290029 -0.449977 -0.979593 0.164820 0.115028
-0.011943 0.072206 -0.351934 -0.337527 0.466114 -0.817810
-0.033061 0.822527 0.474576 -0.864765 -0.438429 0.244870
0.102730 0.030404 0.226410 0.014409 -0.398544 0.917036
-0.068230 -0.006456 -0.343310 -0.012591 -0.044962 -0.998909
0.047258 0.238500 0.170605 0.933936 0.111471 0.339615
-0.007221 -0.075673 -0.389500 -0.081932 0.552414 -0.829534
0.050510 -0.099076 -0.070634 0.502289 -0.862944 -0.055082
0.104422 -0.074835 0.068730 0.071770 -0.701537 -0.709009
0.103236 0.070140 -0.196927 0.976777 0.211829 0.032187
-0.017682 0.671462 0.305644 -0.859917 -0.154803 0.486394
-0.006394 0.753169 0.204974 -0.860273 0.074777 -0.504319
0.186917 -0.536844 -0.358439 0.836513 0.233601 -0.495659
-0.019197 0.128404 -0.299506 -0.321582 0.695077 -0.643002
0.026769 -0.307548 -0.419582 0.713923 0.081393 0.695478
-0.116708 -0.005395 -0.280091 -0.919057 0.217216 -0.328863
0.094559 0.157892 -0.007213 0.887490 0.446916 0.112369
0.001662 0.553019 0.300759 0.480510 -0.066937 0.874431
0.091078 -0.175791 -0.305292 -0.675406 -0.041570 -0.736274
0.035719 0.284349 0.206506 0.961746 -0.026008 0.272704
-0.114425 0.126133 0.090729 -0.966451 0.151296 -0.207561
0.074409 0.189854 -0.033833 0.817065 0.575997 -0.025135
0.154481 -0.457975 0.169082 -0.692961 -0.068685 -0.717696
0.173159 -0.602474 -0.314141 -0.607565 0.000198 0.794270
0.157051 -0.320685 0.144528 -0.108804 -0.211756 -0.971247
0.089148 -0.246020 -0.267942 -0.920932 -0.382460 0.074888
-0.061299 -0.144444 -0.261641 0.953942 -0.251248 -0.163917
-0.090043 0.130487 -0.192847 -0.810376 0.570560 -0.133238
0.000541 -0.067377 -0.224224 0.045301 -0.980075 -0.193393
-0.181590 -0.281696 0.156033 -0.936026 0.135516 -0.324794
-0.024087 0.654269 0.274810 -0.979944 -0.050900 0.192663
0.090865 -0.127307 0.112997 -0.658417 -0.460575 -0.595280
-0.001910 0.835857 0.530457 0.092321 0.939717 0.329256
0.145826 -0.340237 0.153419 -0.624304 0.016512 -0.781007
-0.137130 -0.127188 -0.266085 -0.915453 0.120085 -0.384091
0.180866 -0.709328 -0.307816 -0.864800 0.079767 -0.495739
0.022283 0.394253 0.101612 0.906737 0.185952 -0.378484
0.048127 0.265568 0.148324 0.976515 0.191923 0.097893
0.059371 0.065932 -0.330668 0.507551 0.506098 -0.697321
-0.015521 0.529824 0.149017 -0.943964 0.161326 -0.287934
0.006435 0.780407 0.217093 0.269796 0.481144 -0.834093
-0.154001 -0.288554 0.210184 -0.180314 0.164238 0.969800
-0.024613 0.392293 0.104090 -0.879604 0.196164 -0.433378
-0.121320 0.139183 0.192375 -0.895216 0.298967 0.330466
-0.012524 0.224232 -0.093937 -0.303591 0.864852 -0.399829
-0.193402 -0.686314 0.193774 -0.229535 -0.007851 -0.973269
0.020763 0.374924 0.087796 0.911445 0.202530 -0.358120
0.101543 -0.296526 -0.280096 -0.764416 -0.486447 0.423127
-0.064991 0.207252 0.159063 -0.738929 0.479249 0.473609
-0.065484 -0.081889 0.047034 -0.441460 -0.882635 -0.161459
0.060150 0.237079 0.130471 0.908189 0.368298 0.198869
-0.136241 -0.081296 -0.183657 -0.869027 -0.064785 0.490506
0.145162 -0.593518 0.184018 -0.810761 0.021025 -0.585000
0.023319 -0.068317 -0.248704 -0.629664 -0.758370 -0.168519
-0.085921 0.002788 -0.335543 -0.636279 -0.047149 -0.770017
-0.175435 -0.484710 -0.321249 -0.786986 -0.025261 0.616454
-0.105514 0.180299 0.125275 -0.905686 0.411238 -0.103033
0.031091 0.100538 0.197084 -0.156260 0.101252 0.982513
-0.082786 0.206828 0.050595 -0.892618 0.432562 -0.126978
0.026589 0.868578 0.449699 0.380882 0.751299 0.538960
-0.124581 0.005776 0.198910 -0.834295 -0.206633 0.511132
0.087174 0.173686 0.001684 0.920699 0.390173 -0.008813
-0.047604 0.249033 0.009868 -0.816152 0.511132 -0.269517
-0.036647 0.814672 0.448750 -0.900297 -0.364151 0.238452
-0.079342 -0.162423 -0.294101 0.781411 -0.287322 -0.553935
0.141660 -0.143909 0.104493 0.771384 -0.093897 -0.629405
-0.013422 0.848580 0.494652 -0.233021 0.887368 0.397844
0.159936 -0.446264 -0.360891 0.784732 0.090396 -0.613208
-0.173526 -0.272103 0.141350 -0.857823 0.050819 -0.511427
-0.142413 -0.039829 0.080190 -0.865526 0.063975 -0.496761
-0.155731 -0.366489 -0.353874 -0.627682 0.071219 -0.775205
-0.032531 0.032750 -0.353468 -0.159704 0.022646 -0.986905
0.162619 -0.214821 0.172340 0.927846 0.275070 0.251869
0.104860 0.057551 -0.194373 0.948211 0.154546 0.277511
0.094272 -0.176874 0.152045 -0.849783 -0.459892 -0.257619
0.031957 0.345387 0.224098 0.954226 -0.029588 0.297619
0.106797 0.146703 0.076744 0.961519 0.182967 -0.204948
0.151434 -0.251555 -0.279624 0.999622 0.027245 -0.003674
-0.016012 -0.195617 -0.449326 -0.338405 0.391673 -0.855613
-0.023226 0.633462 0.274318 -0.974475 -0.026868 0.222883
0.146124 -0.008924 0.112691 0.931777 0.362365 0.021962
-0.183209 -0.697928 -0.304081 0.958878 -0.280442 0.043650
0.041087 0.805761 0.414885 0.945352 -0.292459 0.144144
-0.105674 -0.307330 -0.332402 0.960730 0.107881 -0.255656
0.150035 -0.717186 0.228638 -0.989534 0.113113 -0.089600
0.117182 -0.276722 0.161873 -0.931382 -0.067116 -0.357803
-0.076018 0.215768 0.035983 -0.880942 0.457736 -0.120083
-0.094346 0.197738 0.113569 -0.820124 0.571060 -0.035873
0.009923 0.240039 -0.069158 0.249305 0.689318 -0.680211
0.119652 0.126570 0.206990 0.411039 0.579131 0.704027
-0.027768 0.608430 0.250863 -0.980240 -0.019242 0.196872
0.129725 0.075600 0.127283 0.977288 0.112435 -0.179626
0.152486 -0.590377 0.216030 -0.054948 0.149566 0.987224
-0.214319 -0.681924 -0.336596 -0.649023 -0.473831 -0.595192
0.055798 -0.035221 -0.332863 -0.732815 -0.291595 -0.614780
-0.134714 -0.061390 -0.258818 -0.965032 0.160535 -0.207224
-0.177275 -0.297112 0.146264 -0.629375 -0.144158 -0.763613
0.008930 0.179820 -0.220468 0.192305 0.944442 -0.266550
-0.129215 0.013844 -0.091756 -0.913090 -0.301280 -0.274768
-0.021623 -0.289970 -0.455767 -0.864588 0.404260 -0.298432
-0.033542 0.462395 0.173823 -0.990427 0.115933 -0.074928
0.094443 -0.100993 -0.327431 0.482735 -0.061234 -0.873623
0.112016 -0.000064 -0.286672 0.908911 0.233098 -0.345755
-0.217983 -0.685330 -0.326542 -0.692315 0.068977 -0.718291
0.182968 -0.516654 0.178140 0.935841 0.072347 -0.344917
-0.029622 0.857513 0.303065 -0.730425 0.440557 -0.521908
0.178790 -0.510169 0.166871 0.940890 0.011738 -0.338510
0.071228 0.058907 -0.325329 0.655431 0.479532 -0.583488
-0.172927 -0.250402 0.185370 -0.853513 0.309387 0.419280
0.135295 0.083999 0.200858 0.998026 -0.062559 0.005411
-0.112116 0.108408 0.070087 -0.972306 0.086713 -0.217028
-0.137349 -0.096842 -0.260439 -0.952209 -0.061665 -0.299159
0.182001 -0.324858 0.175738 0.981407 -0.158100 0.108834
0.043365 0.261736 0.178701 0.978248 -0.023195 0.206137
0.097640 -0.266680 -0.300110 -0.964885 -0.036182 -0.260167
-0.011563 -0.072692 0.189740 0.029191 -0.516380 0.855862
-0.018854 -0.020802 0.206921 0.061724 -0.140042 0.988220
0.018471 -0.116864 0.101218 0.270327 -0.961364 -0.051988
0.134264 0.049580 0.185814 0.996655 0.040730 0.070854
-0.177777 -0.622864 -0.367897 0.508736 -0.043826 -0.859807
-0.117295 0.011678 -0.196178 -0.870989 0.349921 0.344868
0.022587 0.793351 0.481891 0.972921 -0.192858 0.127396
-0.147108 -0.027085 0.153535 -0.891482 0.328382 0.312128
-0.159613 -0.315325 0.208341 -0.345308 -0.122568 0.930451
-0.159838 -0.383872 0.200763 -0.379653 0.004677 0.925117
-0.001780 0.770981 0.383777 -0.043508 -0.998101 -0.043609
-0.167114 -0.230508 0.144515 -0.887377 0.143376 -0.438185
-0.135501 -0.181340 -0.287235 -0.689187 0.202728 -0.695645
-0.019458 0.658086 0.296368 -0.964499 -0.059829 0.257220
0.019678 -0.109691 -0.044578 0.240127 -0.964229 0.112257
-0.184711 -0.315789 0.170852 -0.977394 -0.152758 -0.146171
-0.061199 0.110451 -0.291522 -0.508649 0.667223 -0.544142
0.163275 -0.620653 -0.352819 -0.776575 -0.058648 -0.627289
0.188937 -0.738040 0.242310 0.000000 -1.000000 0.000000
-0.052996 0.227750 -0.020620 -0.788607 0.564796 -0.243113
-0.021795 0.548647 0.272373 -0.952939 -0.021494 0.302400
0.125910 -0.053509 -0.279927 0.902180 0.156015 -0.402158
0.111803 -0.253235 0.171210 -0.998724 -0.031182 -0.039730
-0.021911 0.620576 0.196740 -0.871821 0.123993 -0.473871
0.014246 0.734035 0.217657 0.885773 0.101014 -0.452992
0.139005 -0.148953 -0.271237 0.884844 0.205464 -0.418132
0.073648 -0.183894 -0.251539 -0.925709 -0.364268 0.101840
-0.022100 0.249126 -0.046371 -0.576815 0.648019 -0.497349
-0.091162 -0.154893 0.136083 0.742628 -0.438680 -0.506028
-0.134101 -0.362146 0.174165 0.817378 -0.265787 -0.511127
-0.045215 0.873041 0.322986 0.261876 0.801505 -0.537597
-0.106106 -0.007085 -0.305843 -0.867326 0.178406 -0.464669
0.036265 0.802282 0.375990 0.802178 -0.548007 -0.237063
0.081567 -0.061281 -0.122076 0.735202 -0.602364 -0.310863
-0.029166 0.564228 0.235741 -0.989475 -0.027194 0.142124
0.139259 0.007320 0.146778 0.990411 0.110736 -0.082611
0.029380 0.800204 0.270548 0.961379 0.191744 -0.197446
-0.073015 0.218357 0.027466 -0.837144 0.508535 -0.201450
0.156054 -0.536918 0.172492 -0.649176 0.007231 -0.760604
0.135951 0.074824 -0.082123 0.987734 0.107410 -0.113336
-0.054280 0.073404 -0.329235 -0.474370 0.519532 -0.710676
-0.110760 0.103149 -0.146484 -0.918120 0.200931 -0.341589
-0.075868 -0.103023 -0.323369 0.741750 -0.317351 -0.590842
0.031157 0.803437 0.450770 0.903997 -0.344253 0.253535
-0.135680 -0.377520 0.182220 0.985641 -0.041060 -0.163788
-0.011799 0.764759 0.350813 -0.876540 -0.286456 0.386809
0.062513 -0.145277 -0.268543 -0.914777 -0.311167 -0.257602
-0.196384 -0.575697 -0.363997 -0.843105 0.242162 -0.480137
0.136936 -0.467912 -0.329181 -0.897158 -0.357178 -0.259867
0.101076 0.104593 -0.172393 0.947619 0.140147 -0.287013
-0.112715 -0.018594 -0.004884 -0.927588 -0.364960 0.079904
-0.131410 0.076744 -0.105005 -0.956384 0.085802 -0.279226
0.153121 -0.180833 0.123598 0.934262 -0.046957 -0.353482
-0.022728 0.029212 0.204490 0.161392 0.120763 0.979474
-0.083488 -0.153431 0.155376 0.908765 -0.380142 -0.172154
0.095365 -0.034328 -0.126096 0.858719 -0.425729 -0.285230
0.117482 0.008186 -0.115468 0.844354 -0.325065 -0.425910
-0.024703 0.700632 0.292189 -0.970770 -0.080575 0.226082
-0.157175 -0.175544 0.135090 -0.967503 0.068943 -0.243277
-0.024371 0.787103 0.355788 -0.785969 -0.617834 0.023102
-0.010087 0.550776 0.142666 -0.938450 0.189690 -0.288669
0.170176 -0.483399 -0.358780 0.420642 0.403915 -0.812350
-0.027519 0.522158 0.175063 -0.943066 0.161008 -0.291037
-0.027661 0.816074 0.487921 -0.941415 -0.282886 0.183611
-0.028773 0.812585 0.269420 -0.925549 0.199006 -0.322111
0.127041 -0.017942 0.184948 0.866752 -0.159136 0.472670
0.022458 0.777455 0.412975 0.681469 -0.731750 0.011921
0.015692 -0.193931 -0.403191 0.284069 -0.359524 0.888846
0.163260 -0.699706 0.241636 -0.363597 0.524227 0.770054
0.120990 -0.014439 -0.031467 0.906800 -0.387690 0.165558
0.104479 -0.214060 0.170466 -0.922387 -0.342134 -0.179294
0.054426 0.213643 -0.050858 0.758649 0.626392 -0.179122
0.053348 0.215051 -0.050366 0.729188 0.659339 -0.183185
-0.108840 0.041297 -0.255238 -0.911919 0.331975 -0.241240
0.073749 0.182180 -0.085386 0.750628 0.633092 -0.189083
0.042783 0.133822 0.194733 -0.123143 0.080248 0.989139
-0.095627 -0.066535 -0.053539 -0.854135 -0.519930 0.011269
0.071869 -0.081603 -0.328483 -0.421633 -0.337029 -0.841806
0.129654 -0.365541 -0.282798 -0.094880 -0.316187 0.943941
-0.139093 -0.270873 0.207575 0.083479 0.186010 0.978995
-0.088812 0.135883 0.206787 0.017974 0.491954 0.870435
-0.120209 -0.272659 0.155745 0.884970 -0.152592 -0.439935
-0.151904 -0.224202 -0.259888 -0.971770 -0.070731 0.225076
0.155711 -0.577418 -0.344871 -0.818352 -0.003315 -0.574708
-0.041779 0.307048 0.184083 -0.991578 0.022353 0.127569
0.150882 -0.185509 -0.241413 0.968356 -0.009559 0.249390
-0.007465 -0.107505 0.149963 0.081322 -0.950944 0.298485
-0.132273 -0.436832 -0.322072 0.959140 -0.208745 0.190988
-0.025432 0.261815 -0.021936 -0.799473 0.509969 -0.317451
-0.125931 -0.029827 -0.269779 -0.923402 0.235366 -0.303202
0.147992 -0.340686 -0.281247 0.578602 -0.107876 0.808445
-0.140403 0.009000 0.102792 -0.904987 0.397117 -0.152630
-0.116335 0.034048 0.021535 -0.931536 -0.107768 0.347313
-0.144068 -0.153596 0.189215 -0.466139 0.025290 0.884350
0.073416 0.224002 0.101863 0.753595 0.639392 0.152553
-0.104552 -0.270780 -0.253300 0.593472 -0.381801 0.708533
0.096950 -0.189027 0.164993 -0.920191 -0.321815 -0.222898
0.136133 -0.446295 -0.339183 -0.991707 0.076696 -0.103122
0.150673 -0.516406 0.177582 -0.840799 -0.033318 -0.540321
0.109011 0.003044 0.212157 0.522199 -0.317750 0.791419
0.129981 -0.166411 0.194199 0.209572 0.007902 0.977761
-0.191549 -0.618543 0.207084 -0.664728 0.052645 0.745228
0.136580 -0.051774 -0.187260 0.957695 0.099830 0.269916
-0.099602 -0.309362 -0.305049 0.981364 0.090524 -0.169497
-0.129084 -0.039711 -0.265366 -0.955817 0.177329 -0.234455
0.142255 -0.279904 0.209981 -0.158072 0.188458 0.969277
-0.190820 -0.695768 0.192898 -0.008590 0.103047 -0.994639
-0.107771 0.055867 -0.220012 -0.942577 0.266159 0.201761
-0.091703 -0.256378 -0.272679 0.983241 -0.182215 0.005826
-0.025193 0.046118 -0.356111 -0.370931 0.237838 -0.897688
-0.112215 0.058884 -0.152315 -0.937700 -0.095632 -0.334027
0.163934 -0.566084 0.212812 0.451256 0.126794 0.883341
0.131645 0.035098 -0.019641 0.950698 -0.066596 0.302883
0.029466 0.604528 0.221366 0.998234 0.052150 0.028461
0.137130 -0.464063 -0.335143 -0.897158 -0.357178 -0.259867
0.124517 -0.003994 0.194761 0.775210 -0.237593 0.585320
-0.025023 0.586758 0.261861 -0.978563 -0.011014 0.205652
-0.037612 0.171067 -0.216575 -0.445715 0.856142 -0.261455
-0.130678 -0.260347 -0.332803 -0.899925 0.283920 -0.330943
-0.154473 -0.635131 0.224362 -0.126495 0.026842 0.991604
0.101315 -0.193057 -0.314726 -0.790833 -0.050720 -0.609927
-0.011723 0.594006 0.298934 -0.840680 -0.100376 0.532148
-0.111733 0.129135 -0.027464 -0.896957 0.413761 0.155787
-0.113252 -0.136742 0.102543 0.259160 -0.579215 -0.772881
0.003477 -0.213438 -0.408198 -0.245021 -0.176209 0.953370
-0.032405 0.469672 0.170050 -0.990427 0.115933 -0.074928
0.214096 -0.732361 0.239105 0.485233 -0.853882 0.188241
0.138273 -0.246930 0.202674 0.026827 0.113348 0.993193
0.006959 0.724566 0.332449 0.422573 -0.185738 0.887093
-0.061864 0.167432 -0.170412 -0.677422 0.709597 -0.193835
-0.197994 -0.725771 -0.256074 0.119250 0.275306 0.953932
0.032338 0.217694 0.206705 0.879831 -0.078092 0.468827
-0.002549 0.261266 -0.049167 0.069989 0.372796 -0.925270
-0.012146 0.311918 0.002297 -0.944386 0.250288 -0.213286
0.158432 -0.368186 -0.299434 0.765267 -0.002066 0.643710
0.024617 0.203964 0.214163 0.763848 -0.129203 0.632331
0.118981 -0.086105 -0.297844 0.869215 -0.060136 -0.490764
-0.010901 0.773619 0.462697 -0.398811 -0.911935 0.096558
0.019316 0.461724 0.127486 0.921177 0.155236 -0.356841
-0.026996 0.797331 0.461429 -0.916256 -0.354279 0.186980
-0.091885 0.159674 0.190150 -0.118433 0.650769 0.749983
-0.173781 -0.302212 0.143181 -0.571911 0.163232 -0.803911
-0.023379 0.580040 0.268580 -0.963332 -0.010843 0.268094
0.146081 -0.395490 -0.362476 0.585387 0.104196 -0.804030
-0.136961 -0.042154 -0.193386 -0.986857 0.148983 0.062594
0.136320 -0.271415 -0.252486 0.689894 -0.171857 0.703215
0.028255 0.291541 0.228805 0.873388 -0.113598 0.473592
-0.121957 0.104644 -0.025427 -0.906326 0.386911 0.169919
-0.013374 -0.118607 -0.410806 -0.295051 0.427319 -0.854601
-0.139727 -0.073581 -0.242186 -0.974453 0.149994 -0.167160
-0.019763 -0.115460 -0.085216 -0.449070 -0.884732 0.124840
-0.210133 -0.699887 0.197612 -0.525457 0.564639 -0.636457
-0.034104 0.342457 0.096339 -0.938413 0.232693 -0.255412
0.140151 -0.634134 0.205569 -0.975781 -0.083454 0.202207
-0.091579 -0.246427 -0.255194 0.874614 -0.327487 0.357493
0.108607 0.140267 -0.063316 0.871384 0.490233 -0.019046
0.031300 0.478021 0.228091 0.991667 -0.000458 0.128831
0.143595 -0.106030 -0.225781 0.996810 0.059933 -0.052701
0.035010 0.815487 0.320229 0.983477 -0.178059 -0.032681
-0.211861 -0.686710 -0.297033 -0.418341 0.480621 0.770710
-0.027190 0.162914 -0.246367 -0.354613 0.806720 -0.472707
0.061071 -0.109956 0.113715 -0.010070 -0.860864 -0.508736
0.143706 -0.447381 0.195666 -0.725507 -0.026507 0.687704
0.180165 -0.684964 -0.307147 -0.927284 0.059455 0.369607
-0.155680 -0.434360 -0.305943 -0.412432 -0.251296 0.875643
-0.035292 0.814554 0.314556 -0.981420 -0.189222 -0.031784
-0.065322 -0.112957 0.177170 0.584950 -0.437833 0.682741
-0.144129 -0.399008 0.197089 0.534161 -0.204616 0.820246
-0.007526 0.374509 0.273318 -0.437955 -0.171571 0.882473
-0.058337 0.249247 0.057109 -0.855862 0.500910 -0.128798
0.142308 -0.438025 0.181690 -0.866525 -0.096972 -0.489623
-0.060927 0.146540 -0.238406 -0.554408 0.728924 -0.401623
0.172876 -0.292606 0.142089 0.490916 -0.123118 -0.862464
0.126771 -0.270976 0.147043 -0.704811 -0.267615 -0.656981
-0.005089 0.393136 0.277344 -0.529660 -0.044259 0.847054
0.029033 0.591972 0.211397 0.993607 0.108218 -0.032173
0.134710 -0.101737 -0.267588 0.898567 0.007655 -0.438769
-0.082143 0.184584 -0.004345 -0.884966 0.453356 -0.106317
0.042445 0.193542 -0.139193 0.574276 0.760281 -0.303611
-0.081774 -0.133498 -0.312594 0.617474 -0.354298 -0.702281
-0.064449 0.240553 0.079979 -0.882419 0.470464 0.000201
-0.145970 -0.324567 -0.354996 -0.675861 0.218172 -0.703997
0.199722 -0.602320 -0.319110 0.584941 0.297389 0.754588
-0.029454 0.654897 0.231607 -0.997783 0.065985 -0.008658
-0.149533 -0.264942 -0.306883 -0.970858 0.043050 -0.235755
0.095551 -0.059151 -0.017431 0.856017 -0.488259 0.169819
-0.091492 -0.071525 -0.058632 -0.751775 -0.659318 0.011610
0.156259 -0.725405 0.212646 -0.948219 0.052184 -0.313301
-0.195835 -0.648808 -0.369065 0.173442 -0.390699 -0.904031
-0.192120 -0.726815 -0.257069 0.599873 0.047946 0.798657
0.141241 -0.598732 0.195863 -0.991518 0.057439 -0.116592
-0.108888 0.097912 0.028597 -0.976651 0.184896 0.109388
-0.047209 0.872136 0.422221 -0.610842 0.761563 0.216552
0.108922 -0.294267 -0.337577 -0.953226 0.107353 -0.282551
-0.102290 -0.200217 0.181837 0.879423 -0.273249 0.389808
-0.010399 -0.114839 -0.107115 -0.209098 -0.831572 -0.514555
0.008633 -0.068293 -0.213677 0.117463 -0.983394 -0.138343
-0.084672 0.178319 -0.008302 -0.899473 0.422881 -0.110089
-0.004517 -0.147086 -0.389374 0.061090 -0.274577 0.959623
0.077608 0.187613 -0.015829 0.861026 0.480767 -0.165823
-0.145814 -0.530524 0.200097 0.987103 0.159319 0.015632
-0.134567 -0.253399 -0.319170 -0.839203 0.312932 -0.444761
0.010791 -0.116034 -0.070109 0.309467 -0.929130 0.202357
-0.136775 -0.151024 -0.277168 -0.831740 0.239484 -0.500856
-0.158078 -0.482364 0.204501 0.155081 0.015781 0.987776
-0.127348 0.100851 -0.046370 -0.924810 0.346139 0.157845
0.135612 0.047269 -0.089373 0.968618 -0.069880 -0.238527
0.061882 0.157248 -0.203034 0.641829 0.735327 -0.217600
-0.040990 0.186080 -0.164937 -0.540167 0.790763 -0.287949
0.004255 0.769541 0.423651 0.097555 -0.994895 0.025824
0.151015 -0.188809 -0.251404 0.999447 0.019640 -0.026832
0.112821 -0.201362 0.136975 -0.767052 -0.358355 -0.532177
0.065518 -0.122256 0.139521 -0.390850 -0.877308 -0.278508
0.023968 0.247502 -0.044681 0.599583 0.654631 -0.460389
-0.189094 -0.535406 -0.326685 -0.924417 0.087797 0.371140
-0.115643 -0.382360 -0.313594 0.892464 -0.398238 0.211928
0.001323 -0.210844 -0.458320 -0.092254 0.309443 -0.946432
-0.084136 0.112135 -0.251932 -0.866776 0.379310 -0.323763
0.083266 -0.212334 -0.247932 -0.836382 -0.346680 0.424591
-0.121285 -0.368563 -0.345794 0.856178 -0.128773 -0.500377
-0.048219 0.843014 0.341723 -0.749095 -0.640619 0.168714
-0.038019 0.292300 0.059848 -0.938121 0.285206 -0.196435
-0.077904 -0.184297 -0.237253 0.790210 -0.379800 0.480958
0.056657 0.072459 0.213808 -0.462003 0.126377 0.877828
0.103153 -0.058416 -0.322214 0.792752 -0.007051 -0.609504
0.116341 0.050181 0.022760 0.932562 0.120929 0.340153
-0.189525 -0.645918 0.170078 -0.773047 -0.180263 -0.608198
0.084166 -0.161843 -0.214161 -0.692705 -0.345345 0.633164
0.175673 -0.677710 0.226273 0.504483 0.267479 0.820946
0.152624 -0.477479 0.172671 -0.711593 -0.054511 -0.700474
0.035167 0.432798 0.181419 0.998764 0.049021 0.008201
-0.047575 -0.020749 -0.331825 0.632669 -0.363375 -0.683878
-0.054776 0.023850 0.211750 0.269108 -0.064212 0.960967
0.060924 0.209102 0.161789 0.742563 0.329768 0.582969
-0.090044 -0.069244 0.199074 0.101730 -0.116573 0.987958
0.156080 -0.618791 0.171388 -0.663936 -0.104704 -0.740423
0.076451 -0.074205 0.036311 0.432395 -0.883801 -0.178692
-0.007697 0.737782 0.337060 -0.591482 -0.397426 0.701571
0.051377 0.851627 0.401684 0.911416 0.100632 -0.398991
-0.152904 -0.506076 -0.317568 0.683626 -0.259609 0.682099
-0.040437 0.039669 -0.352030 -0.159704 0.022646 -0.986905
-0.099996 -0.330049 -0.309978 0.991406 -0.037315 -0.125389
0.015809 0.150135 0.201756 0.423671 -0.247140 0.871450
-0.148633 -0.140576 0.112804 -0.894104 0.089962 -0.438731
0.029205 0.590392 0.234150 0.992733 -0.006686 0.120154
-0.010057 0.639796 0.171621 -0.957663 0.097660 -0.270820
0.011364 0.473460 0.110967 0.907041 0.188937 -0.376271
0.031509 0.210976 0.207098 0.816737 -0.078634 0.571628
-0.172762 -0.663832 0.178806 0.243208 -0.609432 -0.754614
0.047526 -0.044530 -0.319384 -0.689603 -0.318683 -0.650299
-0.116209 -0.334311 -0.278302 0.595752 -0.201102 0.777585
0.054855 -0.053755 -0.322634 -0.752128 -0.298471 -0.587553
0.145030 -0.273103 -0.263414 0.807594 -0.094345 0.582144
0.116025 -0.375097 -0.303911 -0.843921 -0.412692 0.342758
0.072137 0.224452 0.106296 0.753595 0.639392 0.152553
-0.185320 -0.662996 -0.305011 0.016814 0.180509 0.983430
0.084446 -0.074031 -0.088746 0.748364 -0.614358 -0.250030
-0.119562 0.064931 0.010996 -0.908740 0.091618 0.407183
-0.120419 0.091815 0.096644 -0.955729 0.085721 -0.281486
-0.102212 -0.067958 0.199480 -0.124031 0.056125 0.990690
0.115201 -0.141789 0.102130 -0.411467 -0.435522 -0.800634
0.103099 -0.039286 0.001011 0.869985 -0.477420 0.123275
-0.009756 0.528347 0.131717 -0.912337 0.214966 -0.348470
0.013735 -0.153445 -0.394468 0.272789 -0.066792 0.959753
0.092034 0.052680 -0.294333 0.868370 0.323459 -0.375910
0.160256 -0.567473 0.169268 -0.615831 0.003144 -0.787872
-0.051801 0.029089 -0.348131 -0.276224 0.028827 -0.960661
-0.119449 0.067714 -0.135687 -0.921891 -0.079486 -0.379209
0.148282 -0.600062 0.179546 -0.810934 0.003958 -0.585124
0.076879 -0.119818 -0.314500 -0.649559 -0.346230 -0.676903
-0.155917 -0.536427 0.173030 0.686440 -0.002394 -0.727183
-0.176587 -0.555001 0.166549 -0.111379 -0.033652 -0.993208
-0.207844 -0.699957 -0.329215 0.006188 -0.361460 -0.932367
0.164581 -0.410351 -0.309489 0.859880 -0.003035 0.510487
-0.026863 0.824577 0.502106 -0.994185 -0.095943 0.048900
-0.010855 0.512974 0.125781 -0.806035 0.245237 -0.538670
-0.052682 0.262290 0.119164 -0.934915 0.346800 0.075252
-0.030262 0.284531 0.024178 -0.784307 0.506852 -0.357721
0.038059 -0.100754 0.172789 -0.251709 -0.711077 0.656515
0.156816 -0.073265 0.158061 0.905775 0.229096 0.356491
-0.005864 0.505439 0.116132 -0.599081 0.023258 -0.800350
0.089942 -0.158866 0.183151 -0.757667 -0.094116 0.645820
-0.100934 -0.288220 -0.308901 0.987844 -0.037160 -0.150941
0.022842 -0.205040 -0.426401 0.988545 0.019760 0.149629
0.214631 -0.654925 -0.320487 0.679012 0.331742 0.654897
-0.038432 0.919880 0.327529 0.383122 -0.373646 -0.844752
-0.013376 0.692221 0.199617 -0.939850 0.113049 -0.322339
0.153450 -0.087043 0.117805 0.959006 -0.126765 -0.253454
-0.010508 0.838019 0.252270 -0.817393 0.345791 -0.460757
0.047702 0.839891 0.443679 0.897995 -0.259131 0.355608
-0.033170 0.490492 0.216747 -0.996724 0.011955 0.079995
0.037039 0.374835 0.195409 0.996148 0.039614 0.078225
0.128224 -0.266310 -0.246241 0.267702 -0.464667 0.844050
0.130374 0.059480 -0.019125 0.950494 0.159116 0.266915
0.009135 0.017474 0.204554 -0.064494 0.134930 0.988754
0.199712 -0.738040 -0.279682 -0.000000 -1.000000 0.000000
0.144850 -0.462240 -0.313479 -0.655539 -0.125101 0.744727
0.030092 0.887676 0.404576 0.548997 0.777491 0.306773
0.022652 -0.061033 0.195954 0.013861 -0.401478 0.915763
-0.004831 0.290555 0.255784 -0.393902 -0.112713 0.912215
-0.110081 0.086101 0.035304 -0.985388 0.129731 0.110366
-0.113447 -0.239111 -0.331729 0.417403 0.043649 -0.907673
0.007862 0.594828 0.302954 0.470201 -0.077381 0.879160
0.027790 0.549699 0.243105 0.988177 0.015135 0.152567
-0.047677 -0.100760 -0.047620 -0.413796 -0.908776 0.053840
0.034547 0.436351 0.171104 0.997330 0.048951 -0.054196
0.113745 0.162516 0.157483 0.892922 0.447785 0.046675
0.069847 -0.153797 -0.282489 -0.896612 -0.314506 -0.311725
-0.116329 0.099735 -0.134371 -0.898899 0.350318 -0.263169
0.118215 -0.197018 -0.318586 0.752792 0.288150 -0.591840
-0.172138 -0.473767 -0.319376 -0.544964 0.037867 0.837604
0.148946 -0.464425 0.175542 -0.872871 -0.091306 -0.479332
-0.116378 -0.170606 0.116898 0.578404 -0.308382 -0.755215
0.091550 -0.015420 -0.331536 0.803588 0.081143 -0.589629
-0.216514 -0.738040 -0.305514 0.000000 -1.000000 0.000000
-0.179027 -0.347598 0.182088 -0.910152 -0.064340 0.409247
-0.103473 0.115687 -0.155069 -0.884952 0.354582 -0.301879
-0.029269 0.529727 0.241017 -0.992625 0.041285 0.113981
-0.096272 -0.059142 -0.085428 -0.850218 -0.474187 -0.228640
-0.089894 0.118353 -0.222608 -0.901114 0.395630 -0.177401
0.089568 -0.130190 0.192911 -0.401537 -0.084779 0.911910
-0.111001 -0.238091 0.167632 0.931891 -0.153883 -0.328480
-0.161397 -0.341370 -0.302093 -0.933320 0.040966 0.356701
0.077190 -0.138757 -0.208547 -0.678114 -0.312826 0.665058
0.102594 0.095829 -0.171836 0.966476 0.160933 -0.200063
-0.122315 -0.267445 0.150749 0.750587 -0.155797 -0.642143
-0.021920 -0.169494 -0.425795 -0.982879 0.158202 -0.094446
0.146541 -0.513459 -0.326334 -0.977309 -0.160556 0.138162
-0.037330 0.837528 0.469437 -0.919707 -0.159902 0.358567
0.147615 -0.106236 0.109739 0.918773 -0.169096 -0.356740
-0.142600 -0.001541 0.133774 -0.937798 0.344650 0.041852
0.024872 -0.109134 -0.050682 0.233428 -0.964543 0.123159
0.136802 -0.043437 -0.211743 0.990950 0.133889 -0.009598
0.018099 0.184290 0.212290 0.560862 -0.325819 0.761101
0.099463 -0.193507 0.161089 -0.920191 -0.321815 -0.222898
0.060537 0.222452 0.151603 0.874367 0.298994 0.382212
0.113814 0.066581 0.026578 0.947434 0.160559 0.276750
-0.018214 0.495847 0.278568 -0.894555 -0.038612 0.445287
0.073487 -0.103275 0.188872 -0.532499 -0.212216 0.819395
-0.128461 0.066390 0.114090 -0.974914 0.105707 -0.195878
-0.018139 0.608014 0.186289 -0.873723 0.101422 -0.475732
-0.018780 -0.332606 -0.443601 -0.852196 -0.334970 0.401942
0.088071 -0.106924 -0.183509 -0.340950 -0.431786 0.835053
-0.122705 -0.402066 -0.331997 0.918166 -0.265673 -0.293921
0.133397 0.070481 0.149202 0.992523 0.065857 -0.102762
0.027012 -0.108004 -0.100677 0.526122 -0.800079 -0.288218
0.079245 -0.100565 -0.186175 -0.495879 -0.301897 0.814225
0.029604 0.578600 0.217274 0.999829 0.013838 -0.012267
-0.030464 0.382610 0.233992 -0.974533 -0.009481 0.224041
0.116514 -0.049193 0.054491 0.355862 -0.276325 -0.892752
-0.000427 0.780423 0.553836 0.018949 -0.733978 0.678909
0.175729 -0.579056 -0.369387 -0.494740 -0.003858 -0.869032
0.138189 -0.057221 -0.216663 0.985903 0.166618 -0.015283
0.112516 -0.141871 0.103554 -0.411467 -0.435522 -0.800634
0.086035 -0.093224 -0.178330 -0.493285 -0.431914 0.755063
0.125552 -0.244060 0.139220 -0.732897 -0.095096 -0.673661
-0.117408 -0.024668 -0.288802 -0.909328 0.188056 -0.371158
0.132039 -0.333749 -0.273890 0.013962 -0.256108 0.966547
0.040106 0.316054 0.184912 0.992270 0.032590 0.119742
0.042495 -0.069992 -0.168209 0.324237 -0.935131 -0.142832
0.060416 -0.080079 -0.119051 0.508166 -0.797571 -0.325035
0.009883 -0.048938 -0.292191 -0.139872 -0.883188 -0.447677
0.162995 -0.347621 -0.308413 0.915262 0.076245 0.395578
0.114819 -0.059059 0.194738 0.355282 0.096855 0.929728
-0.145089 -0.107941 -0.221254 -0.993389 0.076985 0.085150
-0.110943 -0.147520 -0.313303 -0.846725 0.088906 -0.524549
0.008431 0.186308 0.219357 0.270291 -0.453657 0.849198
-0.018476 0.132531 -0.295405 -0.321582 0.695077 -0.643002
-0.029375 0.610823 0.243088 -0.995788 -0.009723 0.091163
0.004706 0.161442 0.209182 0.245700 -0.375616 0.893613
-0.047851 0.841285 0.330652 -0.792852 -0.609411 -0.001848
0.011223 -0.321691 -0.422622 -0.213199 -0.360927 0.907898
-0.244514 -0.716857 -0.286583 -0.903125 0.399632 0.157035
-0.132258 0.027545 0.192343 -0.933084 -0.031196 0.358302
-0.217601 -0.667663 -0.322314 -0.936986 0.227226 0.265380
-0.011787 -0.098594 0.167061 0.204541 -0.759675 0.617298
0.161732 -0.377239 -0.348831 0.641568 -0.015690 -0.766906
-0.024736 0.430688 0.124017 -0.891363 0.199548 -0.407005
0.020257 -0.177372 -0.434945 0.964612 0.159802 -0.209729
-0.188133 -0.720576 -0.316267 0.643715 -0.178627 -0.744126
-0.011320 0.609549 0.167473 -0.960562 0.103042 -0.258270
-0.120342 0.100575 -0.010491 -0.927194 0.284218 0.243991
0.032572 0.899492 0.348692 -0.761057 0.012240 -0.648570
-0.023884 0.507533 0.159524 -0.899757 0.186411 -0.394574
0.131224 0.056870 0.205856 0.968182 -0.082771 0.236161
-0.008580 0.175810 -0.231401 -0.146049 0.914441 -0.377449
0.135137 0.050334 0.159812 0.997846 0.065432 0.004786
0.024939 0.459538 0.256657 0.960351 -0.005500 0.278741
0.067806 0.207231 -0.011135 0.837905 0.494644 -0.230742
-0.075987 0.220389 0.053957 -0.862050 0.499600 -0.085262
0.021877 -0.117028 0.113773 0.065266 -0.996291 0.056070
-0.062097 0.200319 -0.070128 -0.749480 0.649940 -0.125927
-0.028962 0.685701 0.248063 -0.999545 -0.005889 -0.029577
0.114353 0.137577 0.200839 0.347838 0.603441 0.717543
-0.190411 -0.735365 -0.264253 0.205919 -0.932445 0.296890
0.110899 0.069059 0.232332 0.067806 0.055754 0.996139
0.025348 0.475752 0.149588 0.920625 0.165549 -0.353614
-0.029010 0.699823 0.257168 -0.999984 0.004475 0.003578
0.182197 -0.534408 0.187050 0.927825 0.097935 0.359929
-0.095832 -0.234610 -0.300556 0.900790 -0.045885 -0.431825
0.128955 -0.021310 0.062920 0.837471 0.048851 -0.544294
-0.129492 -0.339262 0.198450 0.823768 -0.522842 0.219186
0.091337 0.118704 0.215823 0.007214 0.400745 0.916161
-0.080000 0.184780 -0.021392 -0.832560 0.549196 -0.072302
-0.123920 -0.012621 -0.037867 -0.890957 -0.436372 0.125598
-0.028127 0.099671 0.198042 0.081318 0.162059 0.983425
-0.037197 0.804613 0.433015 -0.911227 -0.349700 0.217658
-0.130099 -0.299921 0.207869 0.431794 -0.028906 0.901509
0.028315 0.718366 0.256715 0.999937 -0.008340 -0.007509
-0.195908 -0.578531 -0.322674 -0.713623 0.275598 0.644041
-0.034152 -0.002721 -0.337756 0.165200 -0.532152 -0.830375
0.107783 -0.051239 -0.315405 0.789930 0.113318 -0.602635
-0.106456 0.110922 0.035202 -0.990379 0.137262 -0.017561
-0.029688 0.557473 0.231731 -0.990771 0.028747 0.132460
-0.183416 -0.526011 0.185996 -0.838972 0.241678 0.487563
0.121242 0.008203 -0.107089 0.862915 -0.333892 -0.379333
-0.109895 -0.275020 -0.251110 0.593472 -0.381801 0.708533
-0.028989 0.703215 0.257029 -0.999387 0.032613 0.012756
0.169210 -0.495977 -0.362487 0.719951 -0.231392 -0.654314
-0.178141 -0.485915 -0.324753 -0.786986 -0.025261 0.616454
-0.220058 -0.678172 -0.321171 -0.938668 0.332141 0.092657
0.031898 0.421249 0.141337 0.941869 0.188359 -0.278214
0.164509 -0.730183 0.263086 -0.645812 -0.405467 0.646933
0.034481 0.035237 -0.352393 0.239082 -0.042339 -0.970076
-0.009680 -0.184645 -0.446238 -0.252478 0.301996 -0.919268
0.134934 0.043049 0.142982 0.993488 0.085401 -0.075419
-0.129904 0.102702 0.141925 -0.974974 0.115497 -0.189962
-0.013179 0.717256 0.207958 -0.935997 0.093658 -0.339320
-0.182737 -0.334297 0.171598 -0.991110 -0.118107 0.061249
0.137439 -0.061197 0.074820 0.784165 -0.050723 -0.618476
-0.094325 -0.036977 -0.126388 -0.895690 -0.335050 -0.292372
-0.073893 -0.132386 0.142754 0.713863 -0.613281 -0.338061
-0.145064 -0.502061 -0.328976 0.970145 -0.044094 0.238484
0.079028 -0.082344 -0.063225 0.588221 -0.808612 0.011975
0.045317 -0.096699 0.053904 0.629235 -0.760832 -0.158740
0.117745 0.017208 -0.215207 0.930999 0.340572 0.131342
-0.108558 -0.224689 0.175737 0.977779 -0.162966 0.131875
-0.153543 -0.289388 -0.318407 -0.901214 0.260294 -0.346498
0.088229 0.127709 -0.202682 0.900847 0.403120 -0.161149
0.123620 -0.016254 0.054493 0.873965 -0.033398 -0.484840
-0.108520 0.098259 -0.155386 -0.920808 0.204623 -0.332029
0.046616 0.240558 -0.010277 0.793728 0.554040 -0.251067
0.016859 -0.256511 -0.412552 0.144605 0.113470 0.982962
0.181540 -0.600762 -0.370825 -0.528720 0.053882 -0.847084
0.133411 -0.266711 0.138591 -0.467421 -0.140358 -0.872821
0.174360 -0.632217 -0.314011 -0.648743 -0.006660 0.760979
-0.039165 0.919745 0.356071 0.028728 0.685265 0.727727
-0.197045 -0.680118 0.197882 -0.953788 -0.079133 -0.289874
0.204201 -0.736320 0.238574 0.237948 -0.941675 0.237970
-0.077554 -0.166544 -0.288672 0.877574 -0.327070 -0.350556
-0.087523 -0.189113 -0.295203 0.813318 -0.133792 -0.566227
0.036525 0.407687 0.168630 0.997167 0.074377 -0.011219
-0.030580 0.133302 -0.287172 -0.383668 0.718684 -0.579907
0.102653 -0.154425 0.194406 -0.293427 -0.084349 0.952253
0.143372 -0.099870 0.186227 0.745620 0.084655 0.660973
0.069626 -0.122838 0.175813 -0.807328 -0.385508 0.446772
0.100631 -0.176177 0.187132 -0.470995 -0.335431 0.815874
-0.188396 -0.560216 -0.320364 -0.579167 0.070596 0.812146
-0.100427 -0.280237 -0.307996 0.987556 -0.045958 -0.150403
0.016670 0.510486 0.143587 0.935163 0.175218 -0.307847
-0.124453 0.130203 0.138385 -0.955833 0.229270 -0.183901
0.133011 0.046413 0.193865 0.978487 -0.053202 0.199332
0.035317 0.406335 0.201984 0.994005 0.033395 0.104110
0.126713 -0.005417 -0.233779 0.955419 0.288154 -0.064363
-0.117926 -0.117968 -0.180346 -0.110838 -0.316677 0.942035
-0.192789 -0.644136 -0.307641 -0.234795 0.191058 0.953084
0.025180 -0.228178 -0.446435 0.992423 -0.053999 0.110368
0.025922 -0.317789 -0.439846 0.902719 0.135184 -0.408440
0.028816 0.241116 0.216682 0.915491 -0.110817 0.386776
-0.144972 -0.636084 0.217255 0.608761 -0.056518 0.791338
-0.003745 0.047639 -0.371589 -0.378166 0.487042 -0.787261
0.121954 0.142179 0.178748 0.904974 0.413717 0.099300
-0.183313 -0.286429 0.160228 -0.985133 0.077315 -0.153414
-0.091271 -0.020996 0.207959 -0.166799 -0.309541 0.936142
0.099872 -0.179240 0.185552 -0.618477 -0.163432 0.768620
-0.159090 -0.177667 0.143318 -0.980026 0.057807 -0.190282
0.069369 0.072525 -0.317459 0.622350 0.447969 -0.641876
0.070572 0.192691 -0.057297 0.792042 0.605087 -0.080865
-0.140741 -0.120804 0.100853 -0.825757 -0.112121 -0.552770
-0.149234 -0.208653 0.122484 -0.538461 0.001220 -0.842650
-0.128826 -0.269056 0.204119 0.539961 0.155822 0.827140
0.020941 -0.180859 -0.434121 0.982328 0.053700 -0.179298
0.044030 0.113206 0.198514 -0.277725 0.172962 0.944962
-0.003328 0.565177 0.301482 -0.579089 -0.060601 0.813009
0.023450 0.335116 0.244546 0.879527 -0.085632 0.468080
-0.012812 0.785501 0.553113 -0.435515 -0.824097 0.362202
-0.145922 -0.134306 0.187142 -0.765614 0.030204 0.642590
0.045832 0.063288 -0.342418 0.423934 0.426050 -0.799226
-0.131819 -0.003907 0.182913 -0.893886 -0.221363 0.389828
-0.027283 0.709018 0.280921 -0.986750 -0.082103 0.139938
0.062388 0.080290 -0.318515 0.510131 0.566356 -0.647308
0.102226 0.070325 -0.238971 0.952468 0.282278 -0.114560
0.124216 0.025659 -0.001349 0.909807 -0.201407 0.362886
0.003191 -0.097852 -0.378250 0.753754 -0.211590 0.622161
0.115579 -0.147820 -0.193034 0.080257 -0.468553 0.879782
0.106886 -0.213244 -0.223130 -0.362186 -0.456011 0.812942
-0.113789 -0.184189 -0.318638 -0.680718 0.279237 -0.677237
-0.159354 -0.369452 0.202034 -0.491076 0.004582 0.871105
-0.183962 -0.680701 -0.308250 0.910276 0.041974 0.411868
-0.042222 0.312997 0.107161 -0.983614 0.159013 -0.084955
0.008303 0.188510 -0.192677 0.027480 0.912593 -0.407946
-0.137008 -0.288859 0.210470 0.329533 0.087334 0.940096
0.093786 -0.067241 -0.067372 0.774943 -0.627866 -0.072441
0.043438 0.308151 0.143287 0.994703 0.102140 0.011564
0.077348 0.146980 -0.186522 0.774399 0.614711 -0.149785
-0.142834 -0.488227 -0.329268 0.941876 -0.279421 0.186529
0.123535 -0.014789 -0.065456 0.896806 -0.431305 -0.098561
-0.097576 -0.072074 0.059382 -0.385014 -0.743449 -0.546852
-0.025214 0.808820 0.533888 -0.970339 0.139069 0.197744
0.019872 -0.115383 0.087514 0.329642 -0.935589 -0.126530
-0.009816 0.224938 -0.094403 -0.268943 0.857652 -0.438294
0.119280 -0.272207 -0.246962 -0.117215 -0.446970 0.886836
0.072144 0.193041 -0.033750 0.835842 0.546142 -0.055654
-0.044664 0.261421 0.175812 -0.979543 0.005151 0.201168
0.128388 -0.110651 0.195273 0.340116 0.025030 0.940050
-0.130013 -0.230451 -0.315103 -0.857471 0.298289 -0.419246
-0.151129 -0.640167 0.179667 0.737031 -0.131966 -0.662850
-0.015867 0.700145 0.317764 -0.866971 -0.123986 0.482690
0.227153 -0.733493 -0.320550 0.194902 -0.714193 -0.672266
-0.003865 0.331315 0.006162 0.018740 0.672109 -0.740215
-0.092012 0.165646 -0.052391 -0.815954 0.577730 -0.021137
0.094124 -0.265716 -0.282149 -0.991218 -0.108093 -0.076177
-0.162760 -0.587468 -0.354078 0.857018 -0.049679 -0.512885
-0.061588 -0.126952 -0.285426 0.880986 -0.370106 -0.294763
-0.035104 0.806275 0.351373 -0.912717 -0.399578 -0.085347
0.173424 -0.678605 0.190634 -0.391170 -0.541519 -0.744139
0.124812 -0.103664 -0.286454 0.856061 -0.030184 -0.515993
-0.011944 -0.108237 0.023056 -0.157787 -0.986510 -0.043596
0.030282 0.539344 0.199806 0.982439 0.046951 -0.180583
0.085722 0.204368 0.130431 0.655358 0.717020 0.237463
-0.031864 0.436617 0.229221 -0.986658 -0.004734 0.162736
-0.034433 0.440711 0.206864 -0.997464 0.013621 0.069854
0.004924 -0.322961 -0.424606 -0.213199 -0.360927 0.907898
-0.047283 0.867847 0.357641 -0.986423 0.158848 -0.041687
0.002577 0.179153 -0.223598 0.054614 0.945711 -0.320387
0.102028 -0.168744 -0.205335 -0.267224 -0.460545 0.846457
0.121534 -0.021001 0.051842 0.809470 -0.086995 -0.580681
0.207528 -0.594766 -0.331369 0.805583 0.366324 0.465664
0.060866 -0.008824 0.210522 -0.088664 -0.162995 0.982635
0.104627 0.017173 -0.293943 0.897105 0.265175 -0.353391
0.018848 -0.112025 -0.061635 0.234991 -0.963209 0.130417
0.138821 -0.426394 -0.354460 -0.827139 -0.166626 -0.536728
0.036994 0.076126 -0.338361 0.449774 0.577292 -0.681496
0.011600 0.743486 0.214524 0.931054 0.109873 -0.347946
-0.178226 -0.366659 0.183873 -0.931608 0.018487 0.362993
-0.039522 0.361007 0.146705 -0.998128 0.059604 0.013704
0.059115 -0.135146 -0.268078 -0.935265 -0.277956 -0.219134
-0.117723 0.065135 0.079309 -0.958362 0.182459 -0.219663
0.028092 -0.109454 0.065834 0.393313 -0.914098 -0.098636
-0.126309 -0.144448 -0.191566 -0.253911 -0.397512 0.881767
-0.070746 -0.114820 -0.201816 0.647914 -0.362925 0.669696
0.020323 0.554718 0.174164 0.870053 0.187675 -0.455836
-0.050682 -0.108959 0.169286 0.470556 -0.594695 0.651855
0.089271 0.090680 0.225647 -0.262184 0.231467 0.936847
-0.154275 -0.394818 -0.359430 -0.127599 0.168364 -0.977431
0.028098 0.840811 0.486758 0.786271 0.529296 0.318785
-0.142345 -0.187054 -0.281863 -0.773863 0.224566 -0.592204
0.039987 0.260109 0.009831 0.821871 0.492255 -0.286729
0.115161 0.038740 0.037103 0.993735 0.096916 0.055651
-0.185151 -0.695370 -0.294695 0.635166 0.748392 0.190980
0.173179 -0.249896 0.151553 0.923365 0.227044 -0.309595
0.036090 -0.113835 0.114116 0.226626 -0.952113 -0.205233
-0.198231 -0.681015 -0.342153 -0.053568 -0.736187 -0.674654
-0.030569 0.367857 0.103860 -0.899061 0.210361 -0.383977
-0.030329 0.530296 0.232276 -0.991516 0.030405 0.126375
0.098065 -0.018207 0.207631 0.238860 -0.308258 0.920827
0.040615 0.299202 0.086689 0.959531 0.207448 -0.190433
-0.059004 -0.086306 -0.194628 0.550344 -0.585072 0.595661
0.030127 0.468899 0.160677 0.968959 0.097540 -0.227165
0.102063 0.173441 0.089418 0.921429 0.356858 -0.153694
-0.000462 -0.113599 0.127588 0.083081 -0.959634 0.268701
0.032272 0.787664 0.291060 0.996832 -0.012507 0.078540
0.031832 0.921408 0.343421 -0.896994 0.425215 -0.120808
0.043007 0.218033 0.184245 0.912100 0.004820 0.409938
-0.021795 0.519556 0.160498 -0.899092 0.189246 -0.394740
-0.085180 -0.224237 -0.254022 0.896043 -0.230246 0.379596
-0.173245 -0.549463 -0.369271 0.649047 0.130992 -0.749385
-0.180281 -0.589642 -0.313498 -0.056228 0.202523 0.977662
0.067617 0.161758 0.192221 -0.153573 0.460768 0.874133
-0.136878 -0.144700 -0.197265 -0.689363 -0.286678 0.665277
0.230806 -0.736326 -0.313902 0.125489 -0.946652 -0.296822
0.134969 -0.013260 0.171978 0.940337 -0.044562 0.337313
0.180509 -0.319735 0.186028 0.952993 -0.126011 0.275546
-0.141039 -0.390077 0.197305 0.534161 -0.204616 0.820246
0.029877 0.549926 0.206923 0.989328 0.142555 -0.030123
0.023175 0.823147 0.526577 0.894499 0.382078 -0.232139
0.067849 -0.127169 0.166861 -0.786443 -0.588280 0.188239
0.194685 -0.680363 -0.341998 -0.111892 -0.715698 -0.689389
-0.028097 0.801233 0.462088 -0.934559 -0.268898 0.233008
