-0.296386 -0.819851 -0.162828 0.000000 -0.000000 -1.000000
0.002991 -1.000000 0.034624 0.000000 -1.000000 0.000000
0.066623 -0.055378 0.151748 0.999666 0.000000 -0.025856
-0.020979 -0.921704 -0.162368 -0.000025 -0.017181 -0.999852
-0.332281 -0.771598 -0.162828 -0.000000 0.000000 -1.000000
0.071743 -0.923993 0.149724 0.000015 -0.017193 0.999852
-0.029306 -0.999774 0.089497 0.000000 -0.999611 0.027877
-0.256116 -0.966634 0.050870 -0.478790 -0.877930 0.000000
0.098159 -0.178055 -0.162828 0.000000 0.000000 -1.000000
0.421017 -0.823028 -0.042865 0.893642 -0.448781 0.000000
-0.034773 -0.518177 -0.162828 -0.000000 -0.000000 -1.000000
-0.349510 -0.384722 -0.155651 -0.891333 0.431194 -0.139987
0.329473 -0.499663 -0.162366 0.018277 0.007157 -0.999807
-0.340682 -0.912450 -0.120245 -0.657881 -0.752921 -0.017396
0.013216 0.618816 0.161754 0.000097 0.000000 1.000000
-0.345217 -0.426407 0.148675 -0.140504 0.067971 0.987744
0.054418 -0.428049 -0.162828 0.000000 0.000000 -1.000000
0.102162 0.192578 0.068884 0.251650 0.967566 -0.022094
0.222799 -0.416338 -0.162828 0.000000 0.000000 -1.000000
-0.094462 -0.087469 0.150224 0.000000 0.000000 1.000000
0.336802 -0.679565 -0.162828 0.000000 0.000000 -1.000000
0.013862 -1.000000 0.006344 -0.000000 -1.000000 -0.000000
-0.138636 -0.815634 0.150224 -0.000000 0.000000 1.000000
-0.026742 0.854081 0.149436 -0.954285 0.045103 0.295476
0.068128 -0.459286 -0.162828 -0.000000 0.000000 -1.000000
0.338247 -0.084913 -0.025003 0.998455 -0.055572 -0.000000
0.443931 -0.562525 -0.115713 0.985257 0.169900 -0.020079
-0.030630 0.990752 0.093739 -0.544137 0.830519 -0.118970
-0.063457 0.266511 0.136690 -0.999707 0.008117 0.022820
-0.268877 0.145062 0.104811 -0.804838 0.593064 0.022604
-0.054189 -0.262432 0.121856 0.000000 -0.000000 1.000000
-0.035787 -0.354789 -0.162828 0.000000 -0.000000 -1.000000
-0.456181 -0.707674 -0.132040 -0.989497 -0.143220 -0.019584
-0.136672 -0.392461 -0.162828 0.000000 0.000000 -1.000000
0.063919 -0.692284 -0.162828 0.000000 0.000000 -1.000000
-0.334841 -0.070756 -0.152561 -0.987048 -0.059416 -0.149019
0.074396 0.100086 -0.162828 -0.000000 0.000000 -1.000000
0.077063 0.195898 -0.032699 0.231282 0.972176 -0.037175
-0.237377 -0.606690 0.150224 0.000000 0.000000 1.000000
-0.333373 -0.340988 -0.032188 -0.900360 0.435145 0.000000
0.163440 -0.993057 0.079599 0.236775 -0.971565 0.000000
-0.398108 -0.699943 0.149338 -0.014922 -0.001957 0.999887
-0.213754 -0.080586 -0.162828 -0.000000 -0.000000 -1.000000
-0.063322 -0.770315 0.150224 -0.000000 0.000000 1.000000
-0.113017 0.029928 -0.162828 0.000000 0.000000 -1.000000
-0.082753 0.865900 0.141124 -0.968938 -0.003196 0.247285
-0.376717 -0.880748 0.125025 -0.657764 -0.752787 0.025678
0.072438 -0.527175 0.150224 -0.000000 0.000000 1.000000
-0.028228 -0.697004 -0.162828 -0.000000 0.000000 -1.000000
0.314729 -0.169330 -0.133898 0.937816 -0.318251 -0.138626
0.091824 -0.134113 0.139667 -0.803708 -0.595024 -0.000000
0.240873 0.125058 -0.160723 0.023513 0.029857 -0.999278
-0.180454 -0.910864 0.149867 -0.000857 -0.017846 0.999840
-0.104301 -0.998099 0.079607 -0.081207 -0.996697 -0.000000
0.017453 -1.000000 -0.025433 -0.000000 -1.000000 -0.000000
0.414989 -0.834680 -0.074088 0.893502 -0.448710 -0.017698
-0.103006 -0.400281 -0.162828 0.000000 0.000000 -1.000000
0.074446 -1.000000 -0.051981 -0.000000 -1.000000 -0.000000
-0.029888 0.356273 0.162053 -0.000086 0.014237 0.999899
-0.212848 -0.910688 -0.162378 -0.004233 -0.019287 -0.999805
0.125281 -0.820129 -0.162828 0.000000 -0.000000 -1.000000
0.297298 -0.472325 -0.162758 0.018277 0.007157 -0.999807
-0.108344 -0.184938 0.121856 0.000000 -0.000000 1.000000
-0.008238 -0.436269 0.150224 -0.000000 0.000000 1.000000
-0.055349 0.264481 0.037343 -0.985743 0.085137 -0.145131
-0.132499 -0.545492 -0.162828 0.000000 0.000000 -1.000000
0.411397 -0.498331 -0.123940 0.883131 0.468798 -0.017539
-0.127646 0.062427 -0.162828 0.000000 0.000000 -1.000000
-0.100708 -0.781552 -0.162828 -0.000000 0.000000 -1.000000
-0.334210 -0.363331 0.145900 -0.140504 0.067971 0.987744
-0.321554 -0.926228 0.137417 -0.644316 -0.741681 0.186458
-0.433050 -0.536855 -0.040946 -0.883143 0.469104 0.000000
0.344766 -0.820519 -0.162329 0.018367 -0.006453 -0.999811
-0.341443 -0.020795 -0.081569 -0.977548 0.209947 -0.017972
0.244866 -0.377516 -0.162828 0.000000 0.000000 -1.000000
0.304617 -0.225114 0.063546 0.998907 -0.046740 0.000000
0.154698 -0.847738 0.150224 0.000000 0.000000 1.000000
-0.090996 -0.737503 -0.162828 -0.000000 0.000000 -1.000000
0.249224 0.154211 0.106378 0.366822 0.929968 0.024520
0.294495 -0.945400 -0.080964 0.478712 -0.877809 -0.016906
-0.042337 -0.007163 0.162828 0.000000 -0.000000 1.000000
0.314086 -0.600647 -0.162828 0.000000 0.000000 -1.000000
0.413528 -0.500103 -0.006457 0.883143 0.469104 0.000000
0.009528 -0.418732 -0.162828 0.000000 0.000000 -1.000000
-0.400904 -0.825618 -0.159635 -0.144151 -0.066761 -0.987301
0.197020 0.065759 0.150224 -0.000000 0.000000 1.000000
-0.175316 0.177319 -0.116333 -0.323031 0.945208 -0.047257
0.058163 0.198486 -0.077396 0.222242 0.973407 -0.055557
-0.060627 0.403910 0.151055 -0.994448 0.024062 0.102442
0.321177 0.074124 0.086454 0.977282 0.210406 0.025466
-0.243513 -0.240258 0.149747 -0.022992 -0.000878 0.999735
-0.002553 -0.327124 0.137901 0.309131 0.951020 0.000000
-0.370672 -0.468748 0.148022 -0.140490 0.069434 0.987644
-0.046736 -0.536137 0.150224 0.000000 -0.000000 1.000000
0.221305 -0.761597 -0.162828 -0.000000 0.000000 -1.000000
-0.103839 -0.057923 0.150224 0.000000 0.000000 1.000000
-0.039850 -0.656152 0.150224 0.000000 0.000000 1.000000
0.332625 -0.004436 -0.157953 0.145909 0.031103 -0.988809
0.320481 -0.931373 0.053005 0.658680 -0.752423 -0.000012
-0.206847 -0.795564 -0.162828 0.000000 -0.000000 -1.000000
-0.243378 0.083917 0.149575 -0.020183 0.032921 0.999254
0.255670 -0.965618 -0.130341 0.478963 -0.877665 -0.017280
0.304836 -0.217273 -0.073003 0.998727 -0.046732 -0.018971
-0.079433 0.892370 0.086885 -0.979119 -0.001778 -0.203282
0.333034 -0.340286 0.026767 0.900360 0.435145 -0.000000
0.106224 -0.752612 0.159055 0.015037 -0.567513 0.823227
0.175061 0.070719 0.150224 -0.000000 0.000000 1.000000
-0.410400 -0.604611 0.149054 -0.014659 0.002325 0.999890
0.060850 0.355135 0.159647 0.994531 0.020793 0.102356
0.349284 -0.905703 -0.086739 0.658597 -0.752328 -0.015890
0.266953 -0.295408 -0.162003 0.021359 0.007602 -0.999743
0.001014 0.562553 0.161755 0.000097 0.000000 1.000000
-0.071101 0.220270 0.084667 -0.908969 0.416277 -0.022097
-0.119899 -0.097582 -0.162828 0.000000 0.000000 -1.000000
-0.402840 -0.850900 -0.150452 -0.884982 -0.444701 -0.138017
-0.258365 -0.643498 -0.162828 -0.000000 0.000000 -1.000000
0.323282 -0.148627 0.082356 0.946114 -0.322714 0.026906
0.209773 -0.172311 0.150224 0.000000 0.000000 1.000000
-0.055840 0.128114 0.162817 -0.000234 -0.000074 1.000000
-0.066545 -0.926305 0.149684 -0.000015 -0.017193 0.999852
-0.102013 -0.653905 0.150224 0.000000 0.000000 1.000000
0.040790 0.983410 0.098425 0.649031 0.759620 -0.041671
0.281813 0.125921 -0.069849 0.791919 0.610367 -0.017763
0.044504 0.366508 0.161494 0.038799 0.014658 0.999140
0.267959 -0.959927 0.090121 0.478632 -0.877661 0.024955
-0.339089 -0.060146 -0.095279 -0.998297 -0.055563 -0.017769
0.049255 0.196505 -0.139550 0.215670 0.960876 -0.173793
-0.042085 -0.996987 -0.143921 -0.000256 -0.989228 -0.146379
-0.186645 -0.360504 -0.162828 -0.000000 0.000000 -1.000000
-0.027661 -0.503239 -0.162828 -0.000000 -0.000000 -1.000000
-0.448643 -0.765355 0.098944 -0.989273 -0.143188 0.028906
-0.338498 -0.351592 0.021935 -0.900360 0.435145 -0.000000
-0.153768 -0.436407 -0.162828 0.000000 0.000000 -1.000000
-0.145922 -0.241750 -0.162828 0.000000 0.000000 -1.000000
-0.036794 -0.315994 0.127909 0.309131 0.951020 0.000000
-0.040162 -0.227360 -0.162828 0.000000 0.000000 -1.000000
-0.312610 -0.181943 0.096135 -0.969870 -0.242120 0.027027
0.317823 -0.509729 0.150047 0.018277 0.007157 0.999807
0.138969 0.185213 -0.051074 0.131375 0.991169 -0.018002
0.066681 -0.054334 0.153957 0.999666 0.000000 -0.025856
-0.020030 0.573460 0.077056 0.000000 0.048589 -0.998819
-0.301031 -0.390401 0.149452 -0.018277 0.008294 0.999799
-0.012731 -0.582834 0.150224 0.000000 0.000000 1.000000
0.189443 -0.078666 0.150224 -0.000000 0.000000 1.000000
0.299983 -0.930280 0.146529 0.093087 -0.151792 0.984019
0.100130 -0.997424 0.117681 0.081133 -0.996316 0.027796
0.003327 0.105814 -0.162828 0.000000 0.000000 -1.000000
-0.324998 -0.509348 -0.162517 -0.018277 0.007157 -0.999807
-0.074232 -0.087049 0.150224 0.000000 0.000000 1.000000
-0.441586 -0.694790 0.146718 -0.117975 -0.016938 0.992872
-0.145386 -0.690466 0.150224 -0.000000 0.000000 1.000000
-0.272083 -0.904121 -0.162319 -0.003080 -0.020412 -0.999787
0.451980 -0.716835 -0.150333 0.978397 -0.140471 -0.151678
0.262363 -0.058887 0.149924 0.020543 -0.000094 0.999789
-0.223379 -0.977211 0.126813 -0.232465 -0.953659 0.191036
-0.145925 -0.993243 0.127748 -0.079498 -0.976238 0.201590
-0.253862 -0.350956 0.150105 -0.021359 0.007752 0.999742
-0.056454 -0.704675 0.150224 0.000000 0.000000 1.000000
-0.415676 -0.505580 0.106576 -0.882828 0.468937 0.026714
0.285902 -0.950390 0.007577 0.478790 -0.877930 -0.000000
-0.047035 0.183342 -0.160671 -0.070350 0.080142 -0.994298
-0.142277 0.034837 0.150224 0.000000 -0.000000 1.000000
-0.349696 -0.418197 0.147473 -0.140504 0.067971 0.987744
-0.030297 -0.733303 -0.162828 0.000000 0.000000 -1.000000
0.069001 -0.547845 -0.162828 0.000000 0.000000 -1.000000
-0.035420 -0.271848 0.121856 0.000000 -0.000000 1.000000
-0.302090 -0.262408 -0.105207 -0.998679 -0.047517 -0.019581
0.034703 0.282887 0.162824 0.045993 0.000210 0.998942
0.211671 -0.161574 0.150224 0.000000 -0.000000 1.000000
-0.275723 -0.040885 0.149668 -0.019314 -0.000934 0.999813
0.228130 -0.775555 0.150224 0.000000 -0.000000 1.000000
0.044214 -0.841241 -0.162828 0.000000 0.000000 -1.000000
-0.030618 0.618130 0.080781 -0.370909 0.047130 -0.927472
0.207698 0.167782 0.137523 0.360799 0.912775 0.191482
-0.314579 -0.778732 -0.162828 0.000000 0.000000 -1.000000
0.340785 -0.913599 -0.018229 0.658680 -0.752423 0.000009
-0.050824 0.430504 0.071933 -0.958415 0.038926 -0.282713
0.090725 0.149598 -0.162221 0.007742 0.013785 -0.999875
0.041090 0.915699 0.145459 0.007335 -0.779946 0.625803
0.344488 -0.755011 -0.162667 0.015488 -0.001535 -0.999879
0.063346 0.272508 0.116948 0.999559 0.008147 -0.028562
0.339389 -0.009855 0.064586 0.977600 0.210474 0.000000
-0.298446 -0.851819 0.150224 0.000000 -0.000000 1.000000
0.003669 0.489457 0.161755 0.000093 0.000000 1.000000
-0.003958 -0.051434 0.162828 0.000000 0.000000 1.000000
-0.162600 -0.544347 -0.162828 0.000000 0.000000 -1.000000
-0.047894 -0.021144 -0.162828 0.000000 -0.000000 -1.000000
-0.042336 -0.274143 -0.162828 -0.000000 0.000000 -1.000000
0.252038 -0.968858 -0.018685 0.478790 -0.877930 -0.000000
0.167811 -0.301792 0.150224 -0.000000 0.000000 1.000000
-0.294845 -0.920864 -0.160937 -0.039230 -0.044431 -0.998242
-0.117152 -0.730229 -0.162828 0.000000 0.000000 -1.000000
-0.340692 -0.040989 0.078431 -0.998455 -0.055572 -0.000000
-0.192080 0.171941 -0.109304 -0.323031 0.945208 -0.047257
0.005515 -0.684892 -0.162828 0.000000 0.000000 -1.000000
-0.340077 -0.582937 0.150077 -0.015424 0.001893 0.999879
0.189767 -0.979544 0.145565 0.035739 -0.146502 0.988565
0.269682 0.139514 0.137163 0.789609 0.579589 0.201477
-0.110103 -0.486148 -0.162828 0.000000 0.000000 -1.000000
0.102082 -0.163609 -0.162828 0.000000 0.000000 -1.000000
-0.446498 -0.673077 0.146504 -0.117975 -0.016938 0.992872
0.365801 -0.891700 0.017339 0.658675 -0.752428 0.000000
0.393484 -0.736106 0.149336 0.014922 -0.001957 0.999887
-0.050610 -0.311503 0.123630 0.309131 0.951020 0.000000
0.112711 -0.643140 -0.162828 0.000000 0.000000 -1.000000
-0.055038 0.660537 0.109299 -0.939744 -0.003710 -0.341859
-0.228484 0.156806 -0.142034 -0.319862 0.935937 -0.147344
-0.025660 0.579161 0.161753 -0.000096 0.000001 1.000000
0.226189 0.162809 -0.008843 0.354209 0.935140 -0.007062
-0.303659 0.056918 -0.160102 -0.130532 0.032031 -0.990927
-0.201876 -0.965735 -0.159778 -0.035739 -0.146504 -0.988564
0.026490 0.922838 0.085821 -0.010637 -0.000179 -0.999943
-0.101279 -0.098853 -0.162828 0.000000 0.000000 -1.000000
-0.457909 -0.705042 -0.002711 -0.989633 -0.143620 -0.000000
0.312282 0.084301 -0.131846 0.782667 0.621323 -0.037284
0.261526 -0.400016 0.150224 -0.000000 0.000000 1.000000
0.053216 0.279591 0.031723 0.985741 0.085158 -0.145132
-0.369537 -0.888016 -0.084732 -0.658587 -0.752336 -0.015899
-0.005809 0.638098 0.161754 -0.000097 -0.000000 1.000000
-0.327365 -0.663576 0.150224 0.000000 0.000000 1.000000
0.110029 -0.882446 0.150224 0.000000 0.000000 1.000000
0.163989 -0.012470 0.150224 -0.000000 0.000000 1.000000
0.228787 0.161923 0.004160 0.354209 0.935140 -0.007062
0.300282 0.102789 0.095749 0.804841 0.593059 0.022617
-0.051455 0.196613 -0.133611 -0.217649 0.974309 -0.057892
-0.362543 -0.401343 0.048286 -0.900360 0.435145 -0.000000
-0.423837 -0.519858 -0.074203 -0.882998 0.469027 -0.018099
0.253621 -0.778290 0.150224 0.000000 -0.000000 1.000000
0.286234 -0.949384 0.110245 0.478879 -0.877511 0.025507
-0.182826 0.079042 0.150224 -0.000000 0.000000 1.000000
-0.121766 -0.056051 0.150224 0.000000 0.000000 1.000000
-0.295871 0.107480 0.125900 -0.805863 0.591520 0.026257
0.452965 -0.735077 0.101023 0.989273 -0.143188 0.028906
0.067943 0.196376 -0.074104 0.231981 0.971312 -0.052316
0.041284 0.255478 -0.016479 0.391183 0.910789 -0.132057
0.248315 -0.192477 -0.162359 0.022766 -0.004282 -0.999732
0.040623 0.200193 -0.151565 0.872937 0.378738 -0.307471
0.277678 -0.938557 0.147321 0.100037 -0.182933 0.978023
-0.231102 -0.723401 0.150224 0.000000 0.000000 1.000000
0.458070 -0.703934 0.012554 0.989633 -0.143620 0.000000
0.379493 -0.444247 0.140748 0.867920 0.459846 0.187770
0.021057 0.359276 0.046442 0.000000 0.340050 -0.940407
-0.078250 0.886389 0.147699 -0.381030 -0.001133 0.924562
-0.003202 -0.934390 0.149546 -0.000025 -0.017181 0.999852
-0.077912 -0.115323 0.149688 0.803700 -0.595034 0.000000
-0.334888 -0.348730 -0.137888 -0.891618 0.431019 -0.138711
-0.265598 -0.086400 0.149855 -0.020543 -0.000094 0.999789
-0.254747 -0.934243 -0.161758 -0.003080 -0.020412 -0.999787
0.108149 0.080957 0.150224 0.000000 -0.000000 1.000000
-0.056871 -0.697538 0.150224 -0.000000 0.000000 1.000000
0.318025 -0.164119 0.030734 0.946457 -0.322830 0.000000
-0.090633 0.840948 0.128297 -0.999004 -0.006446 -0.044149
-0.416662 -0.543812 -0.159624 -0.120333 0.063755 -0.990684
0.412736 -0.498611 0.006241 0.883143 0.469104 0.000000
-0.201151 0.163978 -0.154127 -0.313904 0.934650 -0.167013
0.365304 -0.435643 0.146459 0.140490 0.069434 0.987644
0.045480 0.152543 0.162821 0.000234 -0.000074 1.000000
0.068597 -0.682555 -0.162828 0.000000 0.000000 -1.000000
0.151020 -0.183993 -0.162828 0.000000 -0.000000 -1.000000
-0.114184 -0.093766 0.150224 0.000000 0.000000 1.000000
-0.208450 -0.749497 0.150224 -0.000000 0.000000 1.000000
0.015759 -0.354737 -0.162828 0.000000 0.000000 -1.000000
-0.363261 -0.872484 -0.160736 -0.156698 -0.180377 -0.971035
-0.097134 0.024385 -0.162828 0.000000 0.000000 -1.000000
0.083604 -0.178700 0.121856 -0.000000 0.000000 1.000000
0.107797 -0.159720 0.131911 -0.967516 -0.252810 -0.000000
-0.269373 -0.246572 -0.161753 -0.022767 -0.001104 -0.999740
0.445084 -0.772696 -0.126221 0.893502 -0.448710 -0.017698
-0.050249 0.009549 0.162828 0.000000 -0.000000 1.000000
0.251033 -0.116440 0.150104 0.021947 -0.005576 0.999744
-0.336496 -0.107400 -0.091162 -0.998207 -0.056676 -0.019228
-0.204296 -0.767283 -0.162828 -0.000000 0.000000 -1.000000
0.207892 0.076004 0.150224 -0.000000 0.000000 1.000000
0.283239 0.125968 0.032738 0.800570 0.599153 -0.010141
-0.110815 -0.223849 -0.162828 0.000000 -0.000000 -1.000000
0.448831 -0.735151 0.142250 0.968053 -0.138986 0.208699
-0.262811 0.149244 0.031329 -0.363367 0.931635 -0.004549
-0.128687 0.187911 0.043359 -0.139278 0.990180 -0.012050
0.306181 -0.209343 0.067577 0.970224 -0.242209 0.000000
0.305477 -0.939704 0.081778 0.478632 -0.877661 0.024955
0.133097 -0.573797 0.150224 0.000000 -0.000000 1.000000
-0.057985 0.480753 0.158860 -0.995351 0.024180 0.093231
-0.343583 -0.910744 0.094406 -0.658489 -0.752224 0.023469
0.049411 -0.435499 -0.162828 -0.000000 0.000000 -1.000000
0.403365 -0.748928 -0.161768 0.014922 -0.001957 -0.999887
0.038092 0.623033 0.083884 0.356401 0.043165 -0.933335
0.299479 -0.938446 0.141934 0.471503 -0.862216 0.185116
-0.141443 0.084284 -0.162828 -0.000000 0.000000 -1.000000
0.225957 -0.262483 0.150131 0.022992 -0.000878 0.999735
-0.181582 -0.239226 0.150224 0.000000 0.000000 1.000000
-0.055812 0.647192 0.153179 -0.989833 0.006056 0.142104
0.084884 -0.451734 -0.162828 0.000000 0.000000 -1.000000
0.049052 -0.081115 -0.162828 0.000000 0.000000 -1.000000
-0.226118 -0.319320 0.150224 0.000000 -0.000000 1.000000
0.216758 -0.979408 -0.100757 0.236788 -0.971396 -0.017917
0.050449 -0.073327 0.162828 0.000000 0.000000 1.000000
-0.020355 0.008363 0.162828 0.000000 -0.000000 1.000000
0.200838 0.173342 0.054682 0.354162 0.935015 -0.017769
0.227747 -0.261055 0.150091 0.022992 -0.000878 0.999735
-0.170037 -0.909439 0.149902 -0.000857 -0.017846 0.999840
-0.288620 -0.801201 0.150224 0.000000 -0.000000 1.000000
-0.361516 -0.895451 0.031561 -0.658670 -0.752432 0.000000
0.192263 -0.986033 0.049538 0.236775 -0.971565 0.000000
-0.280600 0.129777 0.049563 -0.800571 0.599153 -0.010132
-0.061263 0.803815 0.085031 0.036048 -0.000419 -0.999350
0.063204 0.233174 0.051844 0.952451 0.291353 -0.089165
-0.062751 -0.993214 0.145470 -0.000140 -0.134413 0.990925
-0.077248 -0.108956 -0.162828 0.000000 0.000000 -1.000000
0.116663 -0.997092 -0.048319 0.081207 -0.996697 0.000000
0.452922 -0.612516 -0.097566 0.985210 0.170124 -0.020461
-0.112395 -0.422389 -0.162828 0.000000 0.000000 -1.000000
0.257521 -0.965868 0.017442 0.478790 -0.877930 -0.000000
0.236892 0.126339 0.148408 0.026891 0.028882 0.999221
-0.337393 -0.022740 0.142867 -0.980176 -0.055640 0.190158
-0.155170 -0.089023 -0.162828 0.000000 -0.000000 -1.000000
0.110650 -0.311421 -0.162828 -0.000000 -0.000000 -1.000000
-0.214166 -0.463023 -0.162828 -0.000000 0.000000 -1.000000
0.041053 0.251719 0.162558 0.045708 0.003923 0.998947
-0.181211 0.173702 -0.137186 -0.313904 0.934650 -0.167013
-0.437480 -0.651763 -0.159870 -0.115728 0.019873 -0.993082
-0.172403 -0.909386 0.149901 -0.000857 -0.017846 0.999840
0.081023 0.723482 0.139171 0.982056 -0.041707 0.183918
0.381596 -0.474219 -0.159457 0.140490 0.069434 -0.987644
-0.310557 -0.598364 -0.162828 -0.000000 -0.000000 -1.000000
0.351146 -0.601023 0.149940 0.015424 0.001893 0.999879
0.251821 0.142963 0.146086 0.058996 0.114024 0.991725
-0.105007 -0.996800 -0.130763 -0.081149 -0.996524 -0.018832
-0.085178 0.875309 0.101286 -0.759992 -0.644480 -0.084005
0.360949 -0.438230 0.147260 0.140490 0.069434 0.987644
-0.204894 -0.264119 -0.162828 0.000000 0.000000 -1.000000
-0.008682 -0.217149 0.121856 0.000000 -0.000000 1.000000
0.155301 -0.737847 -0.162828 0.000000 -0.000000 -1.000000
0.318300 -0.931978 0.107027 0.478879 -0.877511 0.025507
-0.178712 -0.374974 0.150224 0.000000 0.000000 1.000000
0.334811 -0.900453 -0.159905 0.110239 -0.143647 -0.983470
-0.187404 -0.759972 0.150224 -0.000000 0.000000 1.000000
-0.169344 0.181671 -0.001086 -0.139277 0.990194 -0.010841
-0.248038 -0.167332 0.149886 -0.021947 -0.005576 0.999744
0.436723 -0.544691 -0.089055 0.882998 0.469027 -0.018099
-0.158743 0.098296 0.149990 -0.002396 0.018323 0.999829
-0.368271 -0.421182 -0.148439 -0.891618 0.431019 -0.138711
0.179140 -0.989231 0.053141 0.236775 -0.971565 0.000000
0.209980 -0.283240 0.150224 -0.000000 0.000000 1.000000
0.060336 0.425763 0.120340 0.999082 0.023201 -0.036006
0.409168 -0.491894 0.034808 0.883143 0.469104 0.000000
0.112373 -0.494148 -0.162828 -0.000000 0.000000 -1.000000
-0.085077 0.775925 0.115790 -0.765261 -0.643505 -0.016658
-0.450162 -0.758427 0.001989 -0.989633 -0.143620 0.000000
-0.365588 -0.408842 -0.094330 -0.900216 0.435076 -0.017878
0.037640 -0.296345 0.121856 0.000000 -0.000000 1.000000
-0.309072 -0.045883 -0.161616 -0.020543 -0.000844 -0.999789
0.410305 -0.692769 0.149170 0.014922 -0.001957 0.999887
-0.069572 -0.630303 -0.162828 -0.000000 -0.000000 -1.000000
-0.236265 -0.209605 -0.162560 -0.022766 -0.004282 -0.999732
-0.056334 0.890695 0.085161 0.033173 -0.000295 -0.999450
-0.110173 0.097969 -0.162714 -0.004803 0.017555 -0.999834
0.330528 -0.127464 0.065003 0.946457 -0.322830 0.000000
0.388198 -0.610308 0.149393 0.014659 0.002325 0.999890
-0.371286 -0.652408 -0.162343 -0.014658 0.002325 -0.999890
-0.055524 -0.169687 -0.162828 -0.000000 -0.000000 -1.000000
0.066342 -0.196244 -0.162828 0.000000 0.000000 -1.000000
0.400551 -0.861280 0.063177 0.658675 -0.752428 0.000000
-0.272166 -0.823006 0.150224 0.000000 -0.000000 1.000000
0.318314 -0.505874 0.150010 0.018277 0.007157 0.999807
0.259804 -0.273003 -0.162003 0.022991 0.006556 -0.999714
-0.369420 -0.888067 -0.087190 -0.658587 -0.752336 -0.015899
-0.132354 0.086898 0.150224 -0.000000 0.000000 1.000000
0.192012 -0.986094 0.009240 0.236775 -0.971565 0.000000
-0.328790 -0.921731 0.130300 -0.644316 -0.741681 0.186458
0.153452 -0.823463 0.150224 0.000000 0.000000 1.000000
-0.176503 -0.430890 0.150224 0.000000 0.000000 1.000000
-0.108219 -0.863913 -0.162828 0.000000 0.000000 -1.000000
0.330708 -0.566978 0.150191 0.015424 0.001893 0.999879
-0.323016 -0.323246 -0.135419 -0.924163 0.353350 -0.145143
-0.030009 0.260279 -0.014153 -0.223438 0.955863 -0.190791
0.304561 -0.226311 -0.048394 0.998907 -0.046740 0.000000
0.009720 -0.051108 0.162828 -0.000000 0.000000 1.000000
0.302581 0.099359 -0.055718 0.791944 0.610386 -0.015937
-0.426417 -0.524368 -0.060444 -0.883143 0.469104 0.000000
-0.459291 -0.692733 -0.085057 -0.989432 -0.143590 -0.020145
0.420498 -0.824063 0.048345 0.893642 -0.448781 -0.000000
-0.425167 -0.591235 0.147545 -0.121262 0.019231 0.992434
0.276288 -0.955598 -0.067021 0.478712 -0.877809 -0.016906
-0.312673 -0.183337 -0.008671 -0.970224 -0.242209 0.000000
0.120657 -0.996766 -0.060785 0.081207 -0.996697 0.000000
0.443889 -0.777317 0.084256 0.893337 -0.448627 0.026123
-0.023613 -0.355524 -0.162828 0.000000 0.000000 -1.000000
0.401316 -0.520314 0.147371 0.120332 0.063755 0.990684
0.389979 -0.455768 0.056734 0.883143 0.469104 0.000000
-0.270551 -0.652455 0.150224 0.000000 0.000000 1.000000
0.057318 -0.717108 -0.162828 0.000000 0.000000 -1.000000
-0.020706 0.452647 0.161753 -0.000091 0.000001 1.000000
0.005138 -0.273875 -0.162828 0.000000 0.000000 -1.000000
-0.240089 -0.223207 0.149842 -0.022767 -0.001104 0.999740
0.462787 -0.666574 0.086026 0.984967 0.170082 0.030199
-0.106196 0.035844 -0.162828 0.000000 0.000000 -1.000000
-0.332043 -0.857374 -0.162325 -0.018367 -0.006453 -0.999811
-0.108147 0.110577 -0.162503 -0.004803 0.017555 -0.999834
0.458628 -0.641664 -0.021071 0.985417 0.170159 0.000000
0.049806 0.708847 0.090911 0.128104 -0.070464 -0.989254
-0.323296 -0.324366 -0.136655 -0.891333 0.431194 -0.139987
0.345774 -0.884723 -0.160973 0.110239 -0.143647 -0.983470
-0.309236 -0.133419 0.147478 -0.155800 -0.052871 0.986373
0.176318 -0.171000 0.150224 0.000000 0.000000 1.000000
-0.107127 -0.157154 0.134583 0.967521 -0.252792 0.000000
0.177218 0.176644 -0.116831 0.323031 0.945208 -0.047262
-0.145875 -0.079543 0.150224 0.000000 0.000000 1.000000
-0.043510 0.641509 0.086500 -0.356110 -0.059110 -0.932573
-0.067078 0.052131 0.161812 -0.998225 -0.003512 -0.059448
0.090019 0.126035 0.149757 0.005194 0.018944 0.999807
-0.398822 -0.862465 -0.080742 -0.658587 -0.752336 -0.015899
-0.338958 -0.072144 -0.046134 -0.998455 -0.055572 -0.000000
0.319296 0.077532 0.076065 0.805047 0.593211 -0.000000
-0.231856 -0.726147 0.150224 0.000000 0.000000 1.000000
-0.340096 -0.438062 -0.161731 -0.018277 0.007157 -0.999807
0.176700 -0.068366 -0.162828 0.000000 -0.000000 -1.000000
-0.075371 -0.796560 -0.162828 0.000000 -0.000000 -1.000000
-0.116208 -0.103216 0.150224 0.000000 0.000000 1.000000
0.341081 -0.358391 0.105285 0.900002 0.435072 0.026626
0.215691 -0.593940 0.150224 0.000000 0.000000 1.000000
-0.309876 -0.441414 0.149703 -0.018277 0.007157 0.999807
0.368270 -0.593543 0.149662 0.015424 0.001893 0.999879
0.407980 -0.534899 0.147501 0.120332 0.063755 0.990684
-0.317662 -0.162229 -0.118380 -0.946428 -0.322421 -0.017864
-0.319074 -0.309875 0.104119 -0.933543 0.357400 0.027618
-0.013653 0.862032 0.151186 -0.000000 0.000000 1.000000
0.082897 -0.170685 0.121856 -0.000000 0.000000 1.000000
0.270962 -0.955432 0.135387 0.471096 -0.863249 0.181299
0.381766 -0.642035 0.149561 0.014659 0.002325 0.999890
0.125908 -0.481815 -0.162828 -0.000000 0.000000 -1.000000
0.204743 0.167268 -0.116230 0.323031 0.945208 -0.047262
-0.360362 -0.652297 -0.162503 -0.014658 0.002325 -0.999890
-0.310074 -0.286061 -0.092968 -0.933897 0.357072 -0.018311
0.288245 -0.589147 0.150224 -0.000000 0.000000 1.000000
-0.074339 0.065964 0.150224 -0.000000 0.000000 1.000000
0.070074 -0.287113 -0.162828 0.000000 0.000000 -1.000000
-0.351389 -0.385952 -0.147480 -0.891333 0.431194 -0.139987
-0.047896 -0.693186 0.150224 -0.000000 0.000000 1.000000
-0.093636 -0.465360 -0.162828 -0.000000 -0.000000 -1.000000
-0.303576 -0.247374 0.039717 -0.998907 -0.046740 -0.000000
0.436482 -0.747056 -0.159052 0.122616 -0.016080 -0.992324
-0.195337 -0.446089 0.150224 -0.000000 0.000000 1.000000
0.122690 -0.566901 0.150224 0.000000 -0.000000 1.000000
-0.422419 -0.519247 -0.128034 -0.883131 0.468798 -0.017539
-0.061984 0.936747 0.150344 -0.095589 0.005106 0.995408
-0.231050 -0.324820 -0.162828 -0.000000 0.000000 -1.000000
-0.324517 -0.927387 0.094889 -0.657764 -0.752787 0.025678
-0.041242 0.860062 0.085673 0.010989 -0.000147 -0.999940
-0.382927 -0.665623 0.149599 -0.014659 0.002325 0.999890
0.030400 0.193328 -0.162757 0.143095 -0.003599 -0.989702
-0.180169 -0.988980 0.054830 -0.236775 -0.971565 0.000000
-0.021964 0.995777 0.089541 -0.260728 0.954893 -0.142124
0.186103 -0.396901 -0.162828 0.000000 -0.000000 -1.000000
-0.378855 -0.811504 -0.161830 -0.016224 -0.007514 -0.999840
-0.447080 -0.574789 0.075900 -0.985417 0.170159 0.000000
0.264801 -0.120886 -0.162394 0.020543 -0.006516 -0.999768
-0.323334 0.049334 0.137798 -0.960869 0.206372 0.184773
0.192289 -0.087978 -0.162828 0.000000 0.000000 -1.000000
-0.051901 -0.254473 0.121856 0.000000 -0.000000 1.000000
-0.269841 -0.119029 0.149698 -0.020543 -0.006516 0.999768
0.289518 0.113132 -0.129253 0.782667 0.621323 -0.037284
-0.141177 -0.684848 0.150224 -0.000000 0.000000 1.000000
0.125109 -0.240745 -0.162828 0.000000 -0.000000 -1.000000
-0.167272 0.056527 -0.162828 -0.000000 0.000000 -1.000000
0.052525 0.230166 -0.044735 0.986092 0.081045 -0.145102
-0.364908 -0.876395 -0.159744 -0.156698 -0.180377 -0.971035
0.177008 -0.989750 -0.065197 0.236737 -0.971410 -0.017852
-0.199649 -0.496577 0.150224 -0.000000 -0.000000 1.000000
0.309630 -0.195528 0.067992 0.970224 -0.242209 0.000000
-0.291272 -0.016522 0.149365 -0.019406 0.004372 0.999802
-0.340920 -0.016963 0.057049 -0.977600 0.210474 0.000000
0.401645 -0.859726 -0.093385 0.658597 -0.752328 -0.015890
0.282580 0.043116 0.149273 0.019406 0.004372 0.999802
-0.067284 -0.836303 -0.162828 0.000000 -0.000000 -1.000000
-0.013886 -0.063460 -0.162828 0.000000 0.000000 -1.000000
0.165428 -0.079224 0.150224 0.000000 0.000000 1.000000
-0.198346 0.169124 -0.122829 -0.323031 0.945208 -0.047257
-0.133125 0.182560 -0.139910 -0.125408 0.982239 -0.139568
-0.456827 -0.688010 -0.145959 -0.977578 -0.141495 -0.155953
0.030618 -0.457044 -0.162828 -0.000000 0.000000 -1.000000
0.346577 -0.695807 -0.162725 0.015488 -0.001535 -0.999879
-0.259791 -0.964630 0.067268 -0.478790 -0.877930 -0.000000
0.326096 0.049136 -0.098796 0.977454 0.210443 -0.017234
-0.417441 -0.508925 0.106959 -0.882828 0.468937 0.026714
-0.133022 -0.212065 0.150224 0.000000 0.000000 1.000000
0.337644 -0.355143 0.132478 0.883288 0.427302 0.192913
0.057344 0.680836 0.121908 0.959581 -0.279010 -0.036852
-0.283192 -0.270371 0.148025 -0.170428 0.060657 0.983501
-0.198059 -0.597420 -0.162828 0.000000 0.000000 -1.000000
0.146128 0.157729 0.148694 0.021001 0.144367 0.989301
0.453228 -0.730212 -0.116397 0.989497 -0.143220 -0.019584
0.155216 -0.281832 0.150224 -0.000000 0.000000 1.000000
-0.090691 0.887228 0.110284 -0.994285 -0.002860 -0.106721
0.387631 -0.451348 0.033975 0.883143 0.469104 0.000000
0.113952 0.095555 0.150210 0.005194 0.018944 0.999807
0.131996 0.148983 0.149139 0.002635 0.018115 0.999832
-0.327232 0.046614 0.000318 -0.977599 0.210474 0.000000
-0.055710 0.971619 0.129993 -0.680656 0.732600 -0.001979
0.072040 0.831915 0.149528 0.120846 0.000916 0.992671
0.186758 -0.110141 0.150224 -0.000000 0.000000 1.000000
-0.302884 -0.262151 0.050567 -0.998907 -0.046740 -0.000000
-0.157542 0.017587 0.150224 -0.000000 0.000000 1.000000
-0.011188 0.226879 0.162827 -0.000079 0.000007 1.000000
0.319939 0.075565 -0.100368 0.791919 0.610367 -0.017763
0.060508 -0.999990 -0.065690 -0.000000 -0.999822 -0.018887
0.106720 0.119087 -0.162518 0.007742 0.013785 -0.999875
-0.369033 -0.433610 0.145785 -0.140490 0.069434 0.987644
-0.392897 -0.464406 0.128260 -0.866583 0.460014 0.193445
-0.005037 -0.226045 0.121856 0.000000 -0.000000 1.000000
-0.029680 -0.490693 0.150224 -0.000000 0.000000 1.000000
0.048990 -0.999417 -0.095944 0.000258 -0.999816 -0.019199
-0.018938 -0.791529 0.150224 -0.000000 -0.000000 1.000000
0.058723 0.007795 -0.162828 -0.000000 0.000000 -1.000000
0.174031 -0.341731 -0.162828 0.000000 -0.000000 -1.000000
0.040139 -0.520808 0.150224 -0.000000 0.000000 1.000000
-0.137818 0.138889 -0.161902 -0.003892 0.017082 -0.999846
-0.125850 0.187228 -0.035880 -0.131376 0.991169 -0.018002
0.431470 -0.535543 0.110594 0.882828 0.468937 0.026714
-0.158298 -0.551771 -0.162828 0.000000 0.000000 -1.000000
0.190581 -0.808440 -0.162828 -0.000000 0.000000 -1.000000
-0.355811 -0.389643 -0.119261 -0.900175 0.435155 -0.018039
-0.059229 -0.277639 0.121856 0.000000 -0.000000 1.000000
-0.267546 -0.960354 -0.067583 -0.478721 -0.877804 -0.016906
-0.306872 -0.282554 0.131796 -0.915204 0.349925 0.199884
0.139144 0.138929 -0.161993 0.007742 0.013785 -0.999875
0.294260 -0.102368 0.149264 0.020543 -0.000094 0.999789
-0.287168 0.120387 -0.016221 -0.791944 0.610386 -0.015937
-0.389161 -0.454229 0.028659 -0.883143 0.469104 -0.000000
-0.375505 -0.595180 -0.162157 -0.015424 0.001893 -0.999879
0.305493 0.058692 0.147350 0.143107 0.032239 0.989182
0.155528 -0.220920 -0.162828 0.000000 0.000000 -1.000000
-0.066692 0.042039 0.154403 -0.999666 0.000000 -0.025856
-0.379552 -0.826481 -0.161706 -0.016224 -0.007514 -0.999840
-0.447905 -0.766176 0.120144 -0.989273 -0.143188 0.028906
-0.249131 -0.425971 -0.162828 -0.000000 -0.000000 -1.000000
-0.240847 0.155920 -0.080628 -0.337588 0.940939 -0.025842
-0.065495 0.074768 -0.162828 0.000000 0.000000 -1.000000
0.076321 -0.296243 0.122100 -0.758991 0.651102 0.000000
-0.230982 0.161065 0.000594 -0.354209 0.935140 -0.007062
0.461327 -0.657297 -0.010174 0.985417 0.170159 0.000000
0.220036 -0.338452 -0.162828 0.000000 -0.000000 -1.000000
-0.050731 -0.906068 -0.162636 -0.000015 -0.017193 -0.999852
0.295224 -0.614396 0.150224 -0.000000 0.000000 1.000000
-0.338957 -0.472860 0.149397 -0.018277 0.007157 0.999807
0.010467 0.344479 0.162222 0.000088 0.014235 0.999899
0.282589 -0.731305 0.150224 -0.000000 0.000000 1.000000
-0.141721 -0.921061 -0.162323 -0.000857 -0.017846 -0.999840
0.075384 -0.827798 -0.162828 0.000000 0.000000 -1.000000
-0.155646 0.180415 -0.134768 -0.125408 0.982239 -0.139568
-0.382670 -0.690039 -0.162192 -0.014922 -0.001957 -0.999887
0.098705 -0.230873 -0.162828 0.000000 0.000000 -1.000000
-0.202314 -0.097952 -0.162828 -0.000000 -0.000000 -1.000000
0.150916 -0.787698 0.150224 0.000000 0.000000 1.000000
0.137761 -0.864967 -0.162828 0.000000 -0.000000 -1.000000
-0.062597 0.811766 0.084979 0.036048 -0.000419 -0.999350
0.356528 -0.898816 0.112506 0.657763 -0.752786 0.025695
0.069598 -0.304079 0.149500 -0.758991 0.651102 -0.000000
-0.019300 -0.973696 -0.160728 -0.000196 -0.134247 -0.990948
-0.075921 0.062517 0.150224 -0.000000 0.000000 1.000000
0.015195 0.751257 0.086390 -0.000003 -0.022971 -0.999736
0.006078 -0.143189 -0.162828 -0.000000 0.000000 -1.000000
0.322844 -0.317965 -0.031419 0.933899 0.357536 0.000000
0.034713 -0.767832 0.150224 0.000000 -0.000000 1.000000
0.251921 -0.282367 -0.162246 0.022991 0.006556 -0.999714
0.320402 0.031448 0.146044 0.149573 0.031891 0.988236
-0.135496 -0.847025 0.150224 0.000000 0.000000 1.000000
0.089452 -0.408000 -0.162828 0.000000 -0.000000 -1.000000
-0.126167 0.186463 -0.072004 -0.131421 0.990924 -0.028238
0.327587 -0.135600 0.087215 0.946114 -0.322714 0.026906
-0.314631 -0.545081 -0.162828 -0.000000 -0.000000 -1.000000
-0.146762 -0.435384 -0.162828 0.000000 0.000000 -1.000000
-0.061169 0.367313 0.105143 -0.999142 0.022352 -0.034861
-0.389339 -0.456973 -0.129165 -0.883131 0.468798 -0.017539
0.001801 -0.092508 0.121856 -0.000000 0.000000 1.000000
0.337233 -0.103137 -0.022881 0.998455 -0.055572 -0.000000
-0.234703 -0.230062 0.149958 -0.022992 -0.000878 0.999735
-0.158030 -0.890470 -0.162828 0.000000 0.000000 -1.000000
-0.054582 0.582353 0.105126 -0.939578 0.019136 -0.341799
0.135050 -0.819531 -0.162828 0.000000 -0.000000 -1.000000
-0.300742 -0.257523 0.131797 -0.976772 -0.048709 0.208672
0.289153 -0.445743 -0.162717 0.018277 0.007157 -0.999807
0.166534 -0.435717 -0.162828 -0.000000 0.000000 -1.000000
-0.416382 -0.819380 -0.157996 -0.127519 -0.064078 -0.989764
0.128787 -0.207104 -0.162828 0.000000 -0.000000 -1.000000
0.127553 -0.073104 -0.162828 -0.000000 -0.000000 -1.000000
-0.418370 -0.579674 -0.160755 -0.121263 0.019231 -0.992434
-0.009437 -1.000000 0.001449 -0.000000 -1.000000 0.000000
0.093021 -0.902675 -0.162694 0.000015 -0.017193 -0.999852
-0.067132 0.057454 0.162393 -0.998225 -0.003512 -0.059448
0.318798 -0.656690 -0.162828 0.000000 0.000000 -1.000000
0.156436 -0.095971 -0.162828 -0.000000 -0.000000 -1.000000
-0.403783 -0.644815 -0.161849 -0.014658 0.002325 -0.999890
-0.425136 -0.523004 -0.092348 -0.882998 0.469027 -0.018099
0.452730 -0.607511 -0.047602 0.985417 0.170159 -0.000000
0.026956 0.903621 0.141265 0.953580 0.045089 0.297744
0.319519 0.077230 0.021453 0.805047 0.593211 -0.000000
0.030018 0.465888 0.161752 0.000091 0.000001 1.000000
-0.411944 -0.765141 -0.161608 -0.014922 -0.001957 -0.999887
-0.340359 -0.025647 0.126340 -0.997991 -0.056651 0.028381
-0.039041 -0.580314 0.150224 0.000000 0.000000 1.000000
-0.104661 -0.466751 -0.162828 0.000000 0.000000 -1.000000
-0.292018 -0.229004 0.146501 -0.170184 -0.008487 0.985376
-0.234755 -0.608930 -0.162828 -0.000000 0.000000 -1.000000
-0.112596 -0.235476 -0.162828 0.000000 0.000000 -1.000000
0.156346 -0.556411 -0.162828 -0.000000 0.000000 -1.000000
0.170446 -0.991350 0.068250 0.236775 -0.971565 0.000000
0.255379 -0.709203 0.150224 0.000000 -0.000000 1.000000
0.398520 -0.776424 -0.161775 0.016224 -0.007514 -0.999840
-0.182521 -0.499699 -0.162828 0.000000 0.000000 -1.000000
0.066763 -0.013879 0.157153 0.999666 -0.000000 -0.025856
0.015619 0.789208 0.151186 -0.000000 0.000000 1.000000
0.320992 0.072369 0.108054 0.977282 0.210406 0.025466
-0.031275 -0.315308 0.121856 0.000000 -0.000000 1.000000
0.328677 0.037864 0.098230 0.977282 0.210406 0.025466
-0.262195 -0.868316 0.150224 0.000000 0.000000 1.000000
0.317231 -0.303304 -0.031157 0.933899 0.357536 0.000000
0.247849 0.076979 0.149713 0.020183 0.032921 0.999254
0.071566 -0.298594 -0.162828 0.000000 0.000000 -1.000000
0.158115 -0.159017 -0.162828 0.000000 0.000000 -1.000000
-0.349813 -0.905696 -0.015030 -0.658670 -0.752432 0.000000
-0.148710 -0.043111 -0.162828 0.000000 -0.000000 -1.000000
-0.045593 0.835215 0.135791 -0.008942 0.000305 0.999960
-0.330671 -0.336030 0.091796 -0.900002 0.435072 0.026626
0.012046 -0.619311 0.150224 -0.000000 0.000000 1.000000
-0.006995 -0.828586 0.150224 0.000000 -0.000000 1.000000
0.268603 -0.455415 -0.162828 -0.000000 0.000000 -1.000000
0.006316 -0.625645 0.150224 -0.000000 0.000000 1.000000
0.310060 -0.550552 0.150224 -0.000000 0.000000 1.000000
-0.073361 -0.516786 0.150224 0.000000 -0.000000 1.000000
0.222712 -0.416335 0.150224 -0.000000 0.000000 1.000000
0.366286 -0.545761 -0.162131 0.015332 0.007577 -0.999854
-0.142146 0.185524 0.001432 -0.139277 0.990194 -0.010841
0.174834 -0.631842 0.150224 0.000000 0.000000 1.000000
-0.410428 -0.496437 -0.122132 -0.883131 0.468798 -0.017539
-0.316356 -0.301019 0.005195 -0.933899 0.357536 -0.000000
-0.376245 -0.881782 0.106249 -0.658489 -0.752224 0.023469
0.205576 0.171592 0.057013 0.354162 0.935015 -0.017769
0.155223 -0.485819 -0.162828 -0.000000 0.000000 -1.000000
-0.438490 -0.649178 0.147096 -0.115728 0.019873 0.993082
-0.062794 0.309051 0.112140 -0.999284 0.024785 -0.028577
0.136783 0.153852 0.149038 0.002635 0.018115 0.999832
-0.360166 -0.406884 0.143964 -0.883288 0.427302 0.192913
-0.039260 -0.871447 0.150224 0.000000 -0.000000 1.000000
0.010695 0.887605 0.085894 0.000000 0.000000 -1.000000
0.071767 -1.000000 -0.025271 -0.000000 -1.000000 -0.000000
-0.086481 -0.615716 0.150224 0.000000 0.000000 1.000000
-0.091270 0.896386 0.117541 -0.999035 -0.006298 -0.043472
0.079455 -0.927434 0.149664 0.000015 -0.017193 0.999852
0.363201 -0.892844 -0.117209 0.657881 -0.752921 -0.017408
-0.088501 0.842163 0.099600 -0.994362 -0.003839 -0.105966
0.061207 0.387623 0.147825 0.998858 0.023382 0.041674
-0.210136 -0.368640 -0.162828 -0.000000 0.000000 -1.000000
0.257957 -0.789988 -0.162828 0.000000 0.000000 -1.000000
0.139950 -0.516340 -0.162828 -0.000000 0.000000 -1.000000
-0.085988 -0.194247 -0.162828 -0.000000 -0.000000 -1.000000
-0.293377 -0.866126 -0.162828 0.000000 -0.000000 -1.000000
0.363093 -0.893043 -0.112669 0.657881 -0.752921 -0.017408
0.072320 -0.539077 -0.162828 0.000000 0.000000 -1.000000
-0.120846 -0.310252 0.150224 -0.000000 0.000000 1.000000
-0.451439 -0.603689 -0.095618 -0.985257 0.169900 -0.020079
0.337222 0.000210 0.074954 0.977600 0.210474 0.000000
0.358147 -0.898400 -0.021818 0.658680 -0.752423 0.000009
0.376755 -0.437180 0.136094 0.867920 0.459846 0.187770
-0.461763 -0.675411 0.096257 -0.989195 -0.143556 0.029733
0.171404 -0.354918 -0.162828 0.000000 -0.000000 -1.000000
-0.158986 -0.914635 -0.162422 -0.000857 -0.017846 -0.999840
-0.054467 -0.464905 -0.162828 -0.000000 -0.000000 -1.000000
-0.340220 -0.049457 -0.033807 -0.998455 -0.055572 -0.000000
0.170401 -0.888792 0.150224 0.000000 0.000000 1.000000
0.107597 -0.487284 0.150224 0.000000 -0.000000 1.000000
-0.092508 0.106677 -0.162646 -0.004803 0.017555 -0.999834
-0.408073 -0.489832 0.045839 -0.883143 0.469104 -0.000000
-0.305018 -0.216554 0.044346 -0.998907 -0.046740 -0.000000
-0.004210 -0.645420 -0.162828 -0.000000 -0.000000 -1.000000
-0.315565 0.042481 -0.158995 -0.145909 0.031103 -0.988809
-0.402445 -0.825676 0.146802 -0.144150 -0.066761 0.987301
0.058258 0.343845 0.080296 0.961028 0.071764 -0.266974
-0.246165 0.106746 0.148766 -0.020183 0.032921 0.999254
0.088997 0.848214 0.104065 0.994517 -0.002790 -0.104535
-0.381065 -0.877583 0.105603 -0.658489 -0.752224 0.023469
0.447997 -0.769303 0.020197 0.893642 -0.448781 0.000000
-0.238567 -0.768063 -0.162828 0.000000 0.000000 -1.000000
0.334493 -0.667258 -0.162828 0.000000 0.000000 -1.000000
0.202428 -0.412854 -0.162828 0.000000 0.000000 -1.000000
0.313414 -0.180370 -0.047870 0.970224 -0.242209 0.000000
0.015269 0.387252 0.161754 0.000089 0.000001 1.000000
0.098920 -0.998538 0.064762 0.081207 -0.996697 0.000000
0.051254 0.410293 0.161042 0.038803 0.000908 0.999246
0.222251 -0.121302 0.150224 -0.000000 0.000000 1.000000
-0.240374 -0.346492 -0.162828 -0.000000 -0.000000 -1.000000
0.197270 -0.720626 0.150224 0.000000 0.000000 1.000000
-0.055885 0.969808 0.094068 -0.687568 0.724125 -0.053795
-0.119811 0.187424 0.134166 -0.145894 0.974106 0.172724
0.008760 0.643638 0.079854 -0.000000 -0.075977 -0.997110
-0.058399 -0.519379 -0.162828 -0.000000 -0.000000 -1.000000
-0.070187 0.191036 -0.141959 -0.223642 0.960750 -0.164145
-0.203998 -0.983173 -0.019632 -0.236775 -0.971565 -0.000000
-0.272720 -0.108817 0.149706 -0.020543 -0.006516 0.999768
-0.334441 -0.115992 0.016692 -0.946457 -0.322830 -0.000000
-0.153499 0.184584 0.068484 -0.143767 0.989586 -0.007056
0.369639 -0.863951 -0.161292 0.156698 -0.180377 -0.971035
0.100550 -0.527658 -0.162828 0.000000 0.000000 -1.000000
-0.022866 0.215853 -0.160280 -0.654061 0.497021 -0.570241
0.091704 -0.762195 -0.162828 0.000000 0.000000 -1.000000
-0.214505 -0.487053 0.150224 -0.000000 0.000000 1.000000
0.329742 -0.334605 -0.092520 0.900175 0.435155 -0.018039
0.397469 -0.861969 -0.135734 0.652946 -0.747273 -0.123474
-0.404908 -0.855108 -0.039047 -0.893646 -0.448773 -0.000000
0.446054 -0.585936 -0.141951 0.973599 0.167191 -0.155411
-0.056516 0.660926 0.137644 -0.998326 0.010664 0.056853
0.185774 0.173212 -0.126995 0.323031 0.945208 -0.047262
0.062648 0.035991 -0.162828 -0.000000 0.000000 -1.000000
0.253094 -0.712217 0.150224 0.000000 -0.000000 1.000000
0.287547 -0.679757 -0.162828 0.000000 0.000000 -1.000000
-0.337888 -0.087652 -0.076775 -0.998297 -0.055563 -0.017769
0.207790 -0.982249 0.050790 0.236775 -0.971565 0.000000
-0.300211 -0.244141 0.137406 -0.976772 -0.048709 0.208672
-0.023902 0.622028 0.161753 -0.000097 -0.000000 1.000000
0.027668 0.405225 0.161753 0.000089 0.000001 1.000000
-0.241853 -0.650802 -0.162828 -0.000000 0.000000 -1.000000
0.044185 0.889331 0.085559 -0.031687 -0.000847 -0.999497
-0.062080 -0.808402 -0.162828 0.000000 -0.000000 -1.000000
-0.060560 -1.000000 -0.018063 0.000000 -1.000000 0.000000
0.113948 -0.902899 0.150067 0.000857 -0.017846 0.999840
0.046813 0.721761 0.089604 0.128104 -0.070464 -0.989254
-0.216961 -0.496539 -0.162828 -0.000000 0.000000 -1.000000
-0.451446 -0.600073 -0.053049 -0.985417 0.170159 0.000000
0.015190 0.964275 0.151186 -0.000000 0.000000 1.000000
-0.137043 0.185249 -0.063159 -0.131376 0.991169 -0.018002
-0.307128 -0.607980 -0.162828 -0.000000 -0.000000 -1.000000
0.078078 -0.397641 0.150224 0.000000 0.000000 1.000000
0.072946 0.702190 0.110831 0.492197 -0.680057 -0.543383
-0.028898 -0.738381 -0.162828 0.000000 0.000000 -1.000000
0.247832 -0.326684 0.150045 0.021360 0.007752 0.999742
-0.413023 -0.770603 -0.161569 -0.122616 -0.016080 -0.992324
-0.456325 -0.715962 -0.008747 -0.989633 -0.143620 -0.000000
0.416669 -0.506015 -0.004084 0.883143 0.469104 0.000000
0.161482 -0.993440 0.053120 0.081207 -0.996697 0.000000
0.049500 0.845219 0.085417 -0.033173 -0.000897 -0.999449
-0.233522 0.159979 0.122547 -0.366822 0.929969 0.024499
0.421708 -0.821004 -0.081587 0.893502 -0.448710 -0.017698
-0.461213 -0.656636 0.007893 -0.985417 0.170159 -0.000000
-0.196087 -0.523443 0.150224 -0.000000 -0.000000 1.000000
0.372040 -0.886238 0.014339 0.658675 -0.752428 0.000000
0.167736 0.005323 0.150224 -0.000000 0.000000 1.000000
-0.212762 -0.127027 0.150224 0.000000 -0.000000 1.000000
0.101860 -0.987580 -0.158623 0.011051 -0.135911 -0.990659
0.400783 -0.751687 -0.161801 0.014922 -0.001957 -0.999887
-0.328630 -0.331847 -0.081421 -0.900175 0.435155 -0.018039
0.338207 -0.078607 0.096240 0.998111 -0.055552 0.026253
-0.238990 -0.174858 -0.162648 -0.021947 -0.005165 -0.999746
-0.172738 -0.621535 0.150224 0.000000 0.000000 1.000000
0.183044 0.086256 -0.162729 0.002260 0.018479 -0.999827
-0.298614 -0.545546 0.150224 -0.000000 -0.000000 1.000000
-0.297989 0.047033 0.148815 -0.143107 0.032239 0.989182
0.027380 0.984943 0.150380 0.016906 0.078681 0.996757
-0.168902 -0.165302 -0.162828 0.000000 0.000000 -1.000000
-0.170678 -0.987820 0.137982 -0.232465 -0.953659 0.191036
-0.028658 -0.201441 -0.162828 -0.000000 -0.000000 -1.000000
0.402351 -0.798476 0.148655 0.144150 -0.066761 0.987301
0.089100 0.178348 0.147155 0.031436 0.144852 0.988954
-0.157851 0.182899 -0.036618 -0.139277 0.990194 -0.010841
0.192651 0.166750 -0.154591 0.313901 0.934651 -0.167013
-0.013994 -1.000000 -0.038166 -0.000000 -1.000000 0.000000
0.260281 -0.408663 0.150224 -0.000000 0.000000 1.000000
0.300877 -0.941216 0.116312 0.478879 -0.877511 0.025507
-0.113852 -0.013558 0.150224 0.000000 -0.000000 1.000000
0.302711 0.099246 -0.053534 0.791944 0.610386 -0.015937
0.018354 0.714887 0.151186 0.000000 0.000000 1.000000
-0.179994 -0.528363 0.150224 -0.000000 -0.000000 1.000000
-0.161460 -0.816611 0.150224 -0.000000 0.000000 1.000000
-0.087118 -0.419521 -0.162828 0.000000 -0.000000 -1.000000
0.362690 -0.891032 0.135114 0.648346 -0.742009 0.170497
0.047618 0.976183 0.145909 0.628241 0.749496 0.208730
0.170953 0.179996 -0.090514 0.131419 0.990925 -0.028239
0.239906 -0.135194 -0.162828 0.000000 0.000000 -1.000000
0.111045 -0.817726 0.150224 0.000000 0.000000 1.000000
0.047143 -0.388405 0.150224 0.000000 0.000000 1.000000
0.272102 -0.039876 0.149739 0.019314 -0.000934 0.999813
0.314113 -0.177569 0.034114 0.970224 -0.242209 -0.000000
0.249063 -0.736320 0.150224 0.000000 -0.000000 1.000000
-0.220515 -0.880647 0.150224 0.000000 0.000000 1.000000
-0.224201 -0.133901 -0.162828 -0.000000 0.000000 -1.000000
-0.320840 -0.153351 0.111943 -0.946250 -0.322360 0.026369
0.135820 -0.600159 -0.162828 0.000000 -0.000000 -1.000000
0.161892 -0.683389 0.150224 0.000000 0.000000 1.000000
-0.327590 -0.835576 -0.162548 -0.018367 -0.006453 -0.999811
0.062153 0.294763 0.157786 0.996119 0.008004 0.087649
-0.056802 -0.790502 -0.162828 0.000000 0.000000 -1.000000
0.047370 0.744588 0.088062 0.149048 -0.068437 -0.986459
0.073912 -0.797661 0.150224 0.000000 0.000000 1.000000
-0.303906 -0.238264 -0.070226 -0.998727 -0.046732 -0.018971
-0.330759 -0.800603 0.150111 -0.018367 -0.006453 0.999811
0.457005 -0.687673 -0.145150 0.977578 -0.141495 -0.155953
-0.089370 0.844509 0.107717 -0.994517 -0.002790 -0.104535
0.163848 -0.336956 0.150224 0.000000 0.000000 1.000000
0.073701 0.834940 0.149323 0.120846 0.000916 0.992671
0.235660 -0.591752 0.150224 -0.000000 0.000000 1.000000
0.117993 -0.613695 0.150224 0.000000 -0.000000 1.000000
0.241816 -0.643327 -0.162828 0.000000 -0.000000 -1.000000
-0.070898 0.212307 0.044989 -0.905186 0.414548 -0.093740
-0.193378 0.175994 0.045529 -0.354162 0.935015 -0.017769
-0.017922 0.602270 0.161753 -0.000096 0.000001 1.000000
-0.328840 0.039145 -0.041632 -0.977599 0.210474 0.000000
-0.001483 0.505084 0.161755 -0.000096 0.000000 1.000000
-0.268755 0.143656 -0.040032 -0.791944 0.610386 -0.015937
0.016154 -0.286034 -0.162828 0.000000 0.000000 -1.000000
-0.341338 -0.357468 0.073589 -0.900360 0.435145 0.000000
0.079948 0.825826 0.090267 0.981979 -0.004136 -0.188943
-0.314108 -0.297415 0.110834 -0.933713 0.357002 0.027027
0.057371 0.767800 0.085920 -0.035672 -0.144117 -0.988917
0.022427 -0.209937 -0.162828 0.000000 0.000000 -1.000000
-0.238667 -0.727469 -0.162828 0.000000 0.000000 -1.000000
0.294498 -0.203653 0.146604 0.170054 -0.040018 0.984622
0.095164 -0.602010 0.150224 -0.000000 0.000000 1.000000
-0.015773 -0.149208 0.121856 0.000000 -0.000000 1.000000
0.025381 -0.471942 0.150224 -0.000000 0.000000 1.000000
-0.425791 -0.813523 0.036444 -0.893646 -0.448773 -0.000000
-0.066751 0.875887 0.084875 0.023708 0.000109 -0.999719
0.351755 -0.381080 0.115244 0.900002 0.435072 0.026626
0.256265 0.150458 0.128846 0.359910 0.912445 0.194703
0.254952 0.076913 0.149572 0.020183 0.032921 0.999254
0.101549 -0.776522 0.150224 0.000000 0.000000 1.000000
0.035073 -0.504784 0.150224 -0.000000 0.000000 1.000000
-0.337688 -0.001951 0.019822 -0.977600 0.210474 0.000000
-0.151840 -0.927612 -0.162197 -0.000857 -0.017846 -0.999840
-0.214515 -0.585183 -0.162828 0.000000 0.000000 -1.000000
0.450234 -0.596328 -0.092430 0.985257 0.169900 -0.020079
0.299477 -0.723150 0.150224 -0.000000 0.000000 1.000000
-0.218648 0.048876 -0.162828 0.000000 -0.000000 -1.000000
-0.152875 0.149577 -0.161661 -0.003892 0.017082 -0.999846
0.090511 0.838112 0.125933 0.999004 -0.006446 -0.044151
0.056576 -0.098144 0.146684 -0.208493 -0.975360 0.072129
0.422413 -0.516830 0.057062 0.883143 0.469104 0.000000
0.012967 -0.519554 -0.162828 -0.000000 0.000000 -1.000000
-0.096283 0.134967 -0.162131 -0.004803 0.017555 -0.999834
-0.318663 -0.307044 0.014409 -0.933899 0.357536 -0.000000
-0.154647 -0.791167 0.150224 -0.000000 -0.000000 1.000000
-0.125794 -0.406815 0.150224 0.000000 0.000000 1.000000
0.356603 -0.813192 0.149575 0.016224 -0.007514 0.999840
