2.132668 -4.662790 -1.037246 0.976830 -0.191470 0.095619
-0.878083 0.970036 1.998599 -0.719728 -0.465255 0.515296
-0.763496 1.909620 -1.976490 -0.102754 -0.209152 -0.972470
0.120548 -4.789361 -0.344554 -0.404918 -0.906516 -0.119458
1.196920 4.520652 -1.631517 0.869501 -0.246094 -0.428258
1.952932 -3.839700 0.833629 0.815773 -0.521539 0.250025
0.212547 4.962678 -0.753927 0.018030 0.996130 0.086026
0.000316 4.939519 -0.712560 -0.045150 0.994051 0.099119
0.779938 -3.601090 2.184231 0.821919 -0.101201 0.560543
1.365417 2.034959 0.752924 0.997713 -0.066349 0.012876
1.594452 3.072688 -1.135838 0.865568 0.152219 0.477097
1.667435 -3.594038 -1.791885 0.578304 0.358420 -0.732871
-2.093636 -1.381580 -1.259402 -0.989093 0.135874 0.056854
0.527157 3.230957 -1.955239 0.034220 0.200108 -0.979176
1.340001 -4.883452 0.404629 0.124785 -0.990373 -0.059920
-1.713591 -0.608733 0.577117 -0.940512 0.125920 0.315566
-1.791482 -0.851683 0.397730 -0.979421 0.092786 0.179235
1.533485 0.785139 -1.174601 0.203927 0.957412 0.204393
0.536412 3.662762 0.427954 0.890362 0.446180 0.090440
-1.317283 -2.387428 -1.940347 -0.077859 -0.046559 -0.995877
-2.166625 -2.137233 -1.505663 -0.992317 0.114623 0.046577
-1.022545 3.218117 0.595105 -0.325627 0.688880 0.647620
-1.055727 -4.026452 -2.235862 -0.280346 0.253750 -0.925752
0.500078 -4.187987 2.304765 0.155669 -0.016865 0.987665
-0.871790 3.126987 -1.930101 -0.052303 -0.004867 -0.998619
1.523039 3.193962 -1.769558 0.993997 0.053152 -0.095630
-0.802606 -4.843081 0.681540 0.100699 -0.931078 -0.350647
-0.243109 -1.919183 -2.024280 0.008640 0.302536 -0.953099
0.532323 -4.815285 0.364266 0.073062 -0.841346 -0.535537
0.392063 -4.181157 -2.274932 0.180151 -0.115170 -0.976873
0.215684 -4.877523 0.776062 0.216497 -0.975480 -0.039595
1.204494 0.899214 1.448603 0.928847 -0.351289 0.117638
-0.287224 -4.828609 -2.307833 0.005153 -0.583456 -0.812128
-1.032205 0.070280 -2.077814 -0.088973 0.168989 -0.981594
0.386377 -4.838927 1.508711 0.016675 -0.985788 0.167165
-0.445666 -4.825065 1.308385 -0.011452 -0.943689 -0.330637
-1.130984 -3.342603 1.989820 -0.608312 -0.179615 0.773107
-0.332964 -1.559722 2.079245 -0.290553 0.265386 0.919320
-1.258957 -2.462986 1.832274 -0.643567 0.207311 0.736779
1.182511 -4.791000 -0.327623 0.059441 -0.972552 -0.224965
1.497496 -2.899781 -1.684171 0.168235 -0.339962 -0.925269
-0.440815 -4.868892 -0.389525 -0.518607 -0.853950 -0.042615
-0.048591 -4.715803 2.198875 -0.409984 -0.411979 0.813748
-0.288709 -4.553246 2.207767 -0.116581 -0.347893 0.930258
1.682895 0.788305 -1.380174 0.337656 0.930268 0.143495
0.683681 -1.302537 1.968799 0.253128 0.124465 0.959393
-1.202831 -2.902227 1.938831 -0.701632 -0.054959 0.710416
-1.390964 -0.042664 -2.064080 0.002301 0.093769 -0.995591
-1.403688 -4.853845 1.172593 -0.077910 -0.996191 0.039155
0.914816 4.175966 -1.914393 0.083084 0.216976 -0.972635
-2.014500 -4.154045 -1.702422 -0.998420 0.020867 -0.052165
1.112449 4.911433 -1.530756 0.699718 0.644246 -0.308775
1.330999 1.439352 0.294943 0.999579 -0.014076 -0.025354
2.148339 -2.019648 -0.639485 0.991709 0.123573 -0.035249
-1.579385 -1.717253 1.265450 -0.864887 0.348392 0.361376
1.086366 2.434486 1.508106 0.953940 0.171152 0.246385
-0.952631 -4.833097 0.931458 -0.115413 -0.973526 0.197300
-1.823644 -1.255779 -0.334923 -0.994689 0.084929 0.058149
1.390424 2.799033 -0.121598 0.994101 -0.059331 -0.090793
-1.255499 3.135413 -0.660525 -0.999423 0.028946 0.017754
-1.719475 -4.131156 1.171525 -0.844022 -0.380595 0.377855
-2.251235 -3.406524 -0.743864 -0.999030 0.043080 0.009100
0.434766 -3.472372 -2.098414 -0.009107 0.222479 -0.974895
-0.405827 -4.815359 0.799983 -0.115848 -0.982097 -0.148542
2.117295 -1.812016 -1.046900 0.994440 -0.028867 -0.101267
-1.203478 1.530236 -1.219943 -0.994713 -0.087732 -0.053377
-0.095301 -0.365556 1.749794 0.092045 -0.071194 0.993207
-1.223748 3.616644 -1.876494 -0.057889 0.008409 -0.998288
1.998515 -3.558537 0.890084 0.885639 0.176404 0.429564
-0.061751 -4.854696 -1.860180 0.000001 -0.970588 0.240747
2.140392 -3.629133 0.446677 0.975102 -0.068801 0.210815
-1.834096 -0.832131 -0.041126 -0.993931 -0.107722 -0.022321
-2.109841 -1.620950 -0.977997 -0.989194 0.138761 0.047328
-1.317735 -4.860975 1.150802 0.054980 -0.997936 -0.033170
-2.107467 -1.578405 -1.053954 -0.989321 0.142647 0.029941
-1.591324 -4.874443 -0.334787 0.321227 -0.908003 -0.268969
0.182295 4.929576 0.267213 0.028674 0.957334 0.287559
-1.050958 -4.925475 -1.685718 0.036817 -0.995088 0.091891
0.243150 1.558832 2.312443 0.158205 0.122890 0.979729
1.511260 4.153323 -1.476180 0.894174 0.432191 0.116895
2.042775 -4.715686 -0.459610 0.914355 -0.364916 0.175473
-1.516212 -3.236180 1.588697 -0.802307 0.091372 0.589877
-0.719199 -4.850242 0.079572 -0.082237 -0.977287 -0.195312
-2.208575 -2.887494 -1.409489 -0.976237 -0.046398 -0.211681
-1.827422 -0.459754 0.000916 -0.973631 0.193590 0.120691
-1.266758 2.393566 -0.877843 -0.977464 -0.031783 0.208697
1.122048 -4.829267 -1.115059 0.282679 -0.936809 -0.206112
-1.876360 -3.129364 -1.670593 -0.487832 -0.215851 -0.845830
1.674599 -2.211946 1.596759 0.871381 0.186168 0.453913
0.749428 -4.786789 1.937055 0.777465 -0.379300 0.501677
-2.195433 -2.471148 -1.313628 -0.998110 -0.016548 -0.059191
-0.140924 -4.861199 1.984133 -0.106968 -0.896885 -0.429133
1.096468 -3.108902 2.199313 0.492374 0.020585 0.870140
-1.966022 -4.923639 -1.277240 -0.192988 -0.967783 -0.161715
-1.137090 -2.123673 1.847002 -0.580414 0.176697 0.794920
-0.870063 -1.502087 1.858194 -0.443126 0.200397 0.873774
-0.144624 -4.854517 -1.859460 0.000001 -0.970588 0.240747
-1.025524 4.377110 0.242163 -0.755298 0.325465 0.568856
-1.693392 -2.393095 1.090217 -0.960873 0.084093 0.263917
0.520324 4.840724 0.349033 0.376354 0.698302 0.608878
-0.642002 4.936434 -1.031908 0.045724 0.987434 0.151272
0.345885 1.556979 -1.992841 0.074568 0.014385 -0.997112
-0.833278 -3.378516 -2.066013 -0.106656 0.435458 -0.893869
0.509064 4.976483 -1.326582 -0.045250 0.992742 -0.111426
-0.162883 4.934175 -1.142091 -0.044293 0.997900 0.047255
1.043937 4.942098 -0.392734 0.300347 0.920665 0.249334
1.569277 2.313820 -1.253960 0.761062 -0.646466 0.053537
0.924845 3.039512 -1.931256 0.030194 -0.070773 -0.997035
-0.905763 -2.198375 2.016767 -0.482610 0.235577 0.843559
1.415390 -4.466053 1.423208 0.854140 -0.241692 0.460466
1.280369 0.756979 -0.329853 0.944354 0.328343 0.019667
-1.254029 1.761695 -0.010773 -0.979872 -0.195962 -0.038077
-0.559922 1.931565 1.992674 -0.404225 0.534102 0.742521
1.662988 0.545747 -1.973785 0.018768 -0.053032 -0.998416
1.784745 -1.379823 1.003907 0.970040 -0.103436 0.219826
-0.194746 1.947965 -2.008517 0.039713 0.149737 -0.987928
-2.211160 -2.847254 -1.307922 -0.998945 0.042107 0.018350
1.935652 0.025137 -1.888369 0.882924 0.044261 -0.467424
1.392649 2.997319 0.186352 0.999329 0.032775 -0.016370
0.821586 3.925357 0.351112 0.191450 -0.415480 0.889226
-2.242487 -3.106734 -0.680986 -0.995975 0.030068 0.084433
-1.795297 -2.144764 0.773903 -0.994269 0.017139 0.105522
2.053802 -3.828223 -1.443835 0.905143 0.390075 -0.168989
0.938842 -3.385365 -2.004496 0.134346 0.363461 -0.921871
-2.111903 -4.757956 -1.475405 -0.940756 -0.301299 -0.155552
-1.256576 2.169994 0.087223 -0.998300 0.035915 0.045909
1.774288 -4.847273 -0.141966 0.201162 -0.978643 0.042320
-1.878863 -1.388306 -1.991933 -0.456771 -0.173253 -0.872550
-1.174665 1.037617 -1.067286 -0.999832 0.010217 -0.015241
1.058606 1.642660 1.990053 0.466548 0.378521 0.799409
2.043903 -4.061639 -1.645782 0.700775 0.137443 -0.700017
1.319104 -4.805687 1.356848 0.496155 -0.760228 0.419386
-1.030474 -4.344036 1.871464 -0.573893 -0.316324 0.755372
2.072017 -4.085950 -0.377038 0.969420 0.157066 0.188559
-0.016664 -4.857465 1.027601 -0.112500 -0.898245 0.424852
-1.182496 1.160828 0.917417 -0.994991 -0.094507 0.032582
1.055469 -4.902712 -1.631470 -0.092495 -0.991331 0.093311
0.240883 1.811794 2.166437 -0.089069 0.118723 0.988924
-1.385436 -4.849950 0.795478 0.060922 -0.985108 -0.160781
-1.993467 -0.171016 -0.949428 -0.974706 0.216494 0.055486
-1.088263 4.912433 -0.736142 -0.707197 0.706119 0.035605
-0.933172 2.881085 0.978066 -0.459546 0.607258 0.648117
-0.625200 0.706828 -2.057417 0.003042 -0.012514 -0.999917
-2.005233 -0.462538 -0.882069 -0.974047 0.052679 0.220131
-0.088375 -4.848308 1.663650 0.045426 -0.997928 0.045569
0.108595 3.561946 1.112009 -0.055492 0.853613 0.517944
1.031794 4.773037 -1.818607 0.616141 0.186039 -0.765349
1.996840 -0.753408 -1.718465 0.979491 0.104997 -0.171966
-2.112354 -1.469689 -1.676845 -0.985900 0.114317 -0.122197
-0.488916 4.434636 -1.907301 -0.024217 0.228742 -0.973186
-1.839124 -3.904703 -1.868926 -0.487975 0.333284 -0.806723
-0.681548 4.945184 -1.393023 -0.003692 0.999394 0.034602
1.374253 2.123092 0.184778 0.997380 -0.070677 -0.015413
2.068573 -4.429743 -0.273929 0.962095 -0.178408 0.206262
1.116993 2.892282 -1.919200 0.076639 -0.002906 -0.997055
1.970433 -3.180963 1.023301 0.946047 -0.146942 0.288795
1.117816 0.248899 -2.007389 -0.003428 -0.144981 -0.989428
-1.725992 -2.572064 -1.877426 -0.251903 -0.218106 -0.942854
1.933214 -1.713161 -0.258153 0.508532 0.199388 0.837640
-2.038957 -0.473775 -1.508303 -0.998958 0.042527 0.016568
1.416017 -1.045224 1.510432 0.633704 0.279106 0.721470
-2.234788 -3.674796 -0.330912 -0.993708 -0.035578 0.106197
2.163066 -4.001772 -1.018039 0.995565 0.087202 0.035299
2.046916 -3.699409 0.784746 0.888149 0.303412 0.345156
0.466472 -3.301993 2.343216 0.208054 0.210850 0.955121
1.516745 0.271192 -1.970247 0.002031 -0.116008 -0.993246
1.512764 -2.958893 -1.664655 0.224981 -0.229560 -0.946935
-1.525217 0.807376 -1.409935 -0.320079 0.927089 0.195076
-1.847175 -1.834718 0.314001 -0.999447 0.022718 0.024265
2.044120 -0.040273 -1.034654 0.997690 0.006655 0.067598
-1.968739 -3.650234 -1.544976 -0.971962 0.192995 -0.134322
-2.240816 -3.064733 -0.984820 -0.987863 0.153191 0.025669
1.077207 0.704834 1.599073 0.843948 -0.455463 0.283382
1.874919 -1.066091 -0.322829 0.852953 0.039557 0.520486
1.255525 1.848437 -1.522527 0.962451 -0.039096 -0.268624
1.196142 -0.781827 -1.991028 0.074946 0.148018 -0.986141
-0.230255 -2.829888 -1.953448 0.026434 0.076416 -0.996726
-0.503270 -4.848816 -0.446996 -0.166739 -0.958760 0.230168
1.236922 0.921418 -1.965804 0.063289 0.154137 -0.986020
0.339484 -4.842370 1.370349 -0.064713 -0.992916 -0.099650
1.886469 -1.662582 -0.220650 0.872644 0.082652 0.481312
-2.123520 -1.950383 -0.747232 -0.989778 0.035685 0.138081
-0.329692 -4.770288 2.025488 -0.699617 -0.471891 0.536521
1.365403 2.849878 -0.606600 0.997320 0.072318 0.011105
1.075672 4.951003 -0.620055 0.178512 0.983863 0.012129
-0.480027 -0.289078 -2.091073 -0.015452 -0.034544 -0.999284
-1.246259 3.500462 -0.083424 -0.994593 0.098535 0.032790
-0.108781 -4.003743 -2.260168 -0.011623 -0.107966 -0.994087
2.011190 -3.995401 -1.661896 0.823051 0.536007 -0.187839
1.315048 2.539068 -1.889801 0.143208 -0.070449 -0.987182
1.249490 4.528346 -1.319358 0.990002 0.132841 -0.047427
-1.234315 4.179166 -1.037478 -0.998086 0.059558 0.016647
2.032863 -4.229238 -1.782793 0.896254 -0.131503 -0.423599
-2.260514 -3.636022 -0.701040 -0.998923 0.034433 -0.031085
1.458182 -0.511481 -1.967272 0.213837 0.030188 -0.976403
-2.098549 -4.466528 -0.386455 -0.999766 0.015969 0.014558
-1.090261 -3.187852 -1.912808 -0.261656 0.342442 -0.902369
-0.796562 -2.223970 2.079092 -0.393544 0.170834 0.903293
-1.168594 0.232770 1.079050 -0.370120 0.706069 0.603720
0.845709 1.537114 2.148608 0.351479 0.262772 0.898562
2.015216 -0.138360 -1.553276 0.991776 -0.068935 -0.107837
-1.233484 1.775138 0.914558 -0.998612 -0.051441 0.011272
1.485678 3.938110 -1.791199 0.902890 0.115251 -0.414134
-1.265395 4.304448 -1.489569 -0.594819 0.802626 0.044515
-1.162575 -4.072327 -2.219482 -0.208529 0.176500 -0.961958
1.317023 3.816084 0.053956 0.814758 0.044899 0.578060
0.576988 -1.170696 -2.023929 0.066156 -0.098784 -0.992907
-1.266175 -4.857335 1.301730 -0.054405 -0.997098 0.053251
-2.101248 -1.382223 -1.390292 -0.989093 0.135874 0.056854
1.053139 1.793396 1.918445 0.579603 0.275854 0.766789
-1.020233 1.666448 -1.845269 -0.764011 0.040578 -0.643925
-0.975788 -4.792772 0.424580 0.384214 -0.849783 -0.360900
-1.098779 -4.834609 1.055831 0.035955 -0.989885 -0.137237
1.690273 -4.551376 -2.172543 0.357511 0.343439 -0.868467
-1.197994 4.341647 -0.218395 -0.990605 0.062335 0.121719
0.732914 -4.547588 -2.313864 0.115120 0.088354 -0.989414
-2.004509 0.167237 -1.414501 -0.996407 -0.084679 0.001621
0.575265 -1.782117 2.114374 0.162299 0.271829 0.948561
-1.341948 -3.428370 1.868778 -0.708523 -0.354673 0.610084
-0.461809 3.820021 0.329666 -0.294270 -0.362520 0.884299
0.284649 -2.998840 2.277667 0.034713 0.098009 0.994580
-1.786946 -4.920126 -1.961127 -0.053616 -0.939565 -0.338146
-1.458695 -4.858399 0.819486 0.060922 -0.985108 -0.160781
-1.255119 2.104911 0.331236 -0.999086 -0.024065 0.035333
0.940480 -4.770147 0.742844 -0.566940 -0.819488 0.083775
-1.123896 3.663844 0.135709 -0.592312 0.426673 0.683459
1.829101 -4.759441 0.267715 0.610716 -0.780376 0.134311
1.707342 0.801893 -1.693415 0.285186 0.951334 0.116755
1.853221 -3.323292 1.306472 0.950275 -0.095378 0.296447
-0.231900 2.207561 -1.993021 -0.068813 0.027525 -0.997250
1.263825 1.162769 1.703331 0.984966 -0.171443 0.021217
2.100992 -1.722906 -1.252411 0.976525 0.194535 -0.092494
-1.761376 -2.276814 0.867865 -0.968055 0.048062 0.246089
0.444579 0.010817 1.611737 0.156510 0.368792 0.916241
0.443326 4.760603 0.460162 0.370910 0.592401 0.715183
1.997653 -2.837405 -1.507356 0.624251 -0.359416 -0.693635
-1.351049 -3.249552 1.786581 -0.718885 -0.284730 0.634139
1.648593 -0.004399 0.899835 0.841746 0.189971 0.505346
-1.170056 4.793826 -0.953162 -0.956869 0.289737 0.021310
-1.827366 -0.521922 -0.189022 -0.996740 0.051796 -0.061860
-0.035444 1.217820 -2.021056 0.059717 0.129109 -0.989831
-0.519294 -4.847858 1.155087 -0.139271 -0.985725 0.094603
1.285592 0.887303 0.061951 0.999805 -0.018754 0.006208
-0.614409 3.049273 0.941966 -0.073981 0.702574 0.707754
0.758163 2.608111 1.957318 0.360738 -0.415848 0.834828
1.935515 -2.986737 1.161860 0.938755 -0.115106 0.324791
-0.618105 -4.749364 0.430244 0.470819 -0.856655 -0.210885
-1.358140 4.236345 -1.491431 -0.625486 0.760482 0.174457
1.354179 1.950377 -0.193190 0.999772 0.021363 -0.000734
-1.192507 1.172543 -0.418332 -0.979681 -0.189041 -0.066993
-1.978995 -4.921959 -1.159757 -0.260844 -0.951415 0.163617
-1.898802 0.738806 -1.771434 -0.425131 0.903284 0.057807
-0.620216 3.764961 -1.917673 -0.125025 0.129290 -0.983693
1.351785 3.353759 -0.760340 0.995164 0.075175 -0.063231
-2.214706 -2.908060 -1.284583 -0.997762 0.066859 -0.000723
-1.128861 -1.905041 1.793870 -0.590859 0.161013 0.790544
0.620481 -4.091394 2.285316 0.470180 -0.121223 0.874206
0.654256 0.375087 1.594816 0.279879 -0.707250 0.649204
0.605393 2.786295 1.963038 0.771016 0.617807 0.154429
1.515414 -3.888502 -2.006705 0.305217 0.093247 -0.947707
0.148231 -3.165045 2.343284 0.056557 0.188125 0.980515
2.087759 -2.692743 -1.459516 0.621742 -0.230248 -0.748614
1.956242 -3.350784 1.058934 0.909770 0.122485 0.396631
-1.142456 -0.569115 -2.060464 -0.007612 0.011255 -0.999908
-0.183970 -4.086063 2.310975 -0.246664 -0.052853 0.967659
0.264238 -4.796110 -0.019003 -0.188196 -0.929929 -0.315935
-0.632945 -2.266902 2.160675 -0.409723 0.178782 0.894519
1.616444 -3.907260 1.589838 0.789170 -0.340501 0.511145
2.001327 -1.552798 -1.726904 0.713019 -0.088726 -0.695508
1.888591 -3.494567 -1.466898 0.875440 0.161336 -0.455606
1.732105 -3.315591 1.568205 0.819012 -0.216175 0.531496
-1.092065 -2.057685 -1.982666 -0.005132 -0.123885 -0.992283
2.177396 -2.326421 -0.887099 0.991164 -0.131207 -0.019446
0.498245 4.147466 0.546112 0.266312 -0.554769 0.788232
-0.381714 2.126371 1.792314 -0.147814 0.706392 0.692215
2.233352 -3.218443 -0.066550 0.998606 0.049586 0.018114
-1.258125 1.952260 -0.279665 -0.998346 0.037755 -0.043363
-2.234513 -3.245018 -1.135599 -0.991483 0.128705 -0.019899
1.875196 -1.977711 0.777543 0.962797 0.063416 0.262681
-2.019763 -2.810642 0.641306 -0.956798 -0.002349 0.290745
1.358030 3.622385 -0.445996 0.998926 0.038284 -0.026100
0.980724 -4.346828 -2.259201 0.255415 0.570884 -0.780291
-1.272326 2.482604 -0.146617 -0.994177 0.089313 -0.060288
-1.592855 -1.216671 1.052661 -0.935917 0.147663 0.319773
1.155256 0.718941 -1.986533 0.099499 -0.039769 -0.994243
1.883884 -1.184572 0.314125 0.999460 0.011111 0.030911
-1.183864 3.181535 -1.904767 -0.077066 0.105229 -0.991457
1.926178 -4.881992 -0.798527 0.155183 -0.987854 -0.007944
1.278929 1.216415 -0.954705 0.985467 -0.167362 -0.029076
-0.386181 -2.125640 -2.010117 0.109369 0.113870 -0.987457
-1.078276 3.875428 0.164716 -0.566803 -0.506175 0.650016
1.777926 -2.372853 1.175645 0.970715 -0.019118 0.239471
-2.108326 -4.074300 -0.092076 -0.822518 -0.567364 -0.039533
-1.792083 0.157555 -2.035569 -0.283424 0.109913 -0.952675
1.570639 -4.803315 0.894221 0.532516 -0.820312 0.208601
-1.204908 4.539467 -0.782152 -0.986539 0.163219 0.010056
1.300876 1.116730 0.195401 0.997797 0.031550 -0.058357
0.969716 3.649402 -1.923198 0.040526 0.134067 -0.990143
-1.231245 2.832752 0.540597 -0.997340 0.062430 0.037611
0.321059 -4.059655 -2.236938 0.186845 -0.051358 -0.981046
-1.398737 -4.928641 -1.856380 0.002289 -0.996090 -0.088310
1.435306 -0.427304 1.287287 0.666839 0.147115 0.730536
-1.779105 -2.789273 -1.816498 -0.382291 -0.233682 -0.894006
-1.249586 1.955846 -0.807548 -0.997136 -0.075282 0.007269
-1.186631 1.833321 1.518260 -0.867270 -0.120610 0.483007
-0.764723 0.578124 -2.061937 0.009533 0.067116 -0.997700
-0.763731 4.205197 0.482503 -0.223941 -0.561406 0.796664
-0.710756 4.300526 -1.896106 -0.060406 0.218526 -0.973960
1.271538 0.970492 0.537299 0.996760 -0.062317 -0.050851
1.082547 -1.944629 -1.951129 0.126879 -0.168168 -0.977559
-1.949220 -2.713868 -1.745278 -0.557364 -0.246148 -0.792942
1.713556 -4.896332 -1.138284 0.009223 -0.978525 0.205920
-1.226694 -0.338969 -2.060796 -0.032931 -0.081768 -0.996107
1.513993 2.840749 -1.582679 0.917005 0.013514 0.398646
-1.077012 0.983144 -2.005067 0.002074 0.181882 -0.983318
-1.223905 1.362169 -0.136275 -0.997397 -0.060502 -0.039221
-0.847127 2.908147 -1.940718 -0.063361 0.036468 -0.997324
-1.161716 1.328408 -1.503752 -0.983857 0.007697 -0.178793
-0.093078 2.025682 -1.995433 -0.018288 -0.070959 -0.997312
-1.903376 -2.050237 -1.906518 -0.466551 -0.149025 -0.871849
-0.595418 4.947662 -1.574336 -0.006752 0.999959 -0.006019
0.798419 -1.449799 1.975350 0.187293 0.307013 0.933094
-0.569731 -4.248484 -2.317711 0.032226 0.197914 -0.979689
0.563644 1.969248 2.064300 0.276467 0.738186 0.615343
1.618846 -3.786924 -1.921362 0.410884 0.463890 -0.784844
-1.819120 -3.283140 -1.672038 -0.420440 -0.002172 -0.907318
1.301208 4.169557 -0.955698 0.997795 0.049129 -0.044634
1.057551 -4.848145 -1.125322 0.379239 -0.911315 -0.160258
-0.432970 -1.828937 -2.041938 0.061300 -0.260435 -0.963543
-2.212186 -3.060354 -0.252868 -0.980393 0.174301 0.091918
1.538319 3.696954 -1.372636 0.855254 0.495306 0.152360
0.044766 -4.850894 -1.545358 0.378707 -0.853860 0.357076
-0.373578 -4.871576 -1.408325 0.018571 -0.593480 -0.804634
0.670715 4.016040 -1.923794 0.098519 0.015435 -0.995015
2.065562 -4.460134 -1.862664 0.769378 0.558209 -0.310580
-1.228717 -1.746858 1.664867 -0.606914 0.190480 0.771604
-0.573152 4.801326 0.305590 -0.374188 0.718233 0.586622
0.259350 4.971811 -1.242682 -0.018220 0.999502 0.025772
1.133723 -1.874535 1.942620 0.501452 0.232930 0.833240
-2.086558 -4.047308 -1.171323 -0.992411 0.121471 -0.019085
-2.205464 -3.503736 -1.262372 -0.770035 -0.192901 -0.608141
-1.398382 2.610054 -0.994147 -0.468247 0.052884 0.882013
2.075985 -1.320825 -1.210996 0.996252 0.010651 -0.085844
1.593768 3.292002 -1.258542 0.977869 0.135563 0.159357
-1.172610 -1.942629 -1.988226 0.033280 -0.164737 -0.985776
2.057911 -0.923211 -1.005487 0.994986 0.091125 0.041216
0.187204 4.960398 -1.029284 -0.055362 0.998184 0.023744
1.534697 -0.710915 1.281597 0.711054 0.370594 0.597546
-0.753140 1.349823 -2.012914 -0.108131 0.061551 -0.992229
1.873846 -0.951483 0.009877 0.995265 -0.055536 -0.079775
-1.749006 -0.391818 0.402472 -0.957476 0.184172 0.222080
-2.060647 -4.890315 -1.179653 -0.684443 -0.727410 -0.049110
-0.553741 -4.836047 0.248530 0.191993 -0.838691 0.509644
-0.428861 -3.381870 -2.111307 0.025806 -0.143608 -0.989298
1.544135 3.028356 -1.671672 0.935907 0.005013 0.352211
-0.031932 0.191055 1.593085 -0.120502 -0.126459 0.984625
-1.393427 -0.278144 1.093316 -0.703261 0.249887 0.665567
-0.372402 0.856521 2.215549 -0.238711 -0.638237 0.731895
1.923934 -4.828713 -0.383411 0.619059 -0.761712 0.191211
-1.947116 0.248746 -0.878406 -0.982797 0.046143 0.178830
-0.357639 0.541529 1.907125 -0.658421 -0.212341 0.722075
1.118419 4.745714 -1.717183 0.719647 -0.226283 -0.656432
0.035477 0.451473 1.904055 0.062913 -0.937111 0.343314
1.839672 -4.701025 -2.110099 0.480003 0.188380 -0.856802
0.705804 -4.186408 2.211842 0.784669 -0.166703 0.597080
2.056018 -0.850935 -1.150078 0.998472 0.044937 -0.032166
-1.006752 -1.134077 -2.036874 -0.033600 -0.261263 -0.964683
-2.260097 -3.601118 -0.584692 -0.994749 0.097094 -0.032372
-1.069727 2.961935 0.811847 -0.253498 0.607760 0.752573
-0.325874 3.282491 -1.955275 0.009755 0.064366 -0.997879
1.306136 1.432141 1.060785 0.993754 -0.107077 0.031427
-0.872751 -0.473374 1.582786 -0.404576 0.402049 0.821386
1.811618 -1.688069 0.980028 0.951587 -0.122405 0.281958
-1.223990 0.995375 -1.886841 -0.186140 0.917700 -0.350969
0.030400 -3.957056 -2.244015 0.124175 0.167806 -0.977968
-1.562102 -4.807412 1.105104 -0.494269 -0.818986 0.291481
-1.270991 2.516416 -0.351940 -0.997327 -0.064788 -0.033792
1.970012 -4.871735 -0.780247 0.684910 -0.724509 0.077356
-1.587855 0.831440 -1.622268 -0.259671 0.957081 0.128712
2.107558 -3.835746 0.382377 0.843170 -0.522593 0.126340
1.460063 -3.183060 1.872900 0.678359 -0.231793 0.697209
-0.061528 2.237992 -1.997506 0.021336 0.215284 -0.976318
-0.584376 -1.333240 1.938610 -0.408896 0.127510 0.903629
-1.450007 -3.379866 1.732451 -0.683987 0.215953 0.696797
1.197494 -0.299907 1.457687 0.592972 0.284700 0.753213
-2.060186 -1.033884 -1.828831 -0.991649 -0.034541 -0.124258
1.465930 2.843842 -0.985951 0.442308 0.162672 0.881987
1.379427 2.547665 0.936369 0.986730 0.103685 0.124952
-1.240644 2.103836 0.936224 -0.999929 0.011904 -0.000073
1.593835 -4.478764 -2.173710 0.273971 0.265881 -0.924255
-0.759987 2.299627 1.749616 -0.363238 -0.654323 0.663264
2.021567 -0.081551 -1.531181 0.991776 -0.068935 -0.107837
0.655425 4.592262 -1.906035 0.089634 0.120901 -0.988609
2.215236 -3.317040 -1.058940 0.914936 -0.154517 -0.372849
1.243463 4.584175 -1.311890 0.994546 0.103572 -0.012252
1.909191 -4.792948 -2.032997 0.676503 -0.317057 -0.664694
-2.248493 -3.405630 -1.106887 -0.999195 0.027586 -0.029137
-1.108469 -4.875165 -0.314062 0.088931 -0.828650 0.552657
-0.629277 0.333493 -2.073332 -0.059913 0.052096 -0.996843
-2.137988 -4.538125 -1.013122 -0.994735 -0.101528 -0.013951
-1.655639 -0.879432 0.787316 -0.892277 0.173393 0.416865
-0.432868 -4.811107 -0.631711 0.156576 -0.891637 -0.424814
-0.152151 -0.610523 -2.077138 0.061792 0.055010 -0.996572
1.276619 1.558420 -1.212294 0.989805 -0.088995 -0.111207
-0.434269 -4.851206 -0.168136 0.353241 -0.753144 -0.554973
0.101760 4.322842 0.722438 0.128553 -0.509941 0.850549
-2.000266 -3.139985 0.748040 -0.891998 -0.205681 0.402536
0.929003 -4.861372 1.148181 0.171562 -0.964412 0.201189
1.161034 4.292693 0.299039 0.575453 0.551777 0.603652
-2.005390 -2.117900 -1.842105 -0.443896 -0.084200 -0.892114
1.409171 -2.923194 -1.693107 0.179472 -0.163443 -0.970091
1.507138 -2.869298 1.847417 0.749379 0.068173 0.658622
-0.744479 2.686259 1.633760 -0.398580 0.910404 0.110900
-1.813671 -0.722580 0.235671 -0.994699 0.102640 -0.006266
-0.866028 2.536875 1.547478 -0.840456 0.540206 0.042572
2.014402 0.349077 -0.887901 0.985820 0.135788 -0.098592
-1.876001 -2.070416 -0.344040 -0.695332 0.006870 0.718656
-0.811395 2.575874 1.811079 -0.951203 0.257807 0.169553
-0.729185 -2.265834 2.116380 -0.409723 0.178782 0.894519
1.579414 -1.843828 1.606042 0.682931 0.271400 0.678194
-1.240167 3.591509 -0.148379 -0.968013 0.162929 0.190803
0.582391 2.053501 1.899598 0.080946 0.749339 0.657221
2.090105 -3.085026 0.696808 0.955879 -0.207020 0.208419
-1.816535 -0.550985 -0.440846 -0.997871 0.051351 -0.040219
0.703082 -3.224324 -2.007710 0.007852 0.145182 -0.989374
-0.385739 -0.543070 1.787008 -0.211555 0.226916 0.950659
-0.488898 2.630229 -1.974484 -0.099055 0.025067 -0.994766
0.845221 -1.327497 1.923755 0.271934 0.274884 0.922220
0.845972 3.818342 -1.919365 0.142600 -0.249120 -0.957917
1.897571 -0.087548 0.135333 0.998692 -0.051054 -0.002691
-1.094062 4.791061 -0.379703 -0.787535 0.565095 0.245878
0.911759 2.564072 -1.931226 -0.014067 0.046207 -0.998833
1.372327 2.125841 0.685049 0.997705 -0.066615 0.012138
0.059172 3.138637 1.974628 -0.007184 0.918085 0.396318
0.236717 3.305191 -1.950997 -0.044022 0.030131 -0.998576
-0.875150 3.066933 0.820447 -0.302392 0.704804 0.641724
1.042188 0.648978 1.596582 0.718282 -0.579535 0.384981
-0.996606 -4.894062 -0.919181 -0.401312 -0.912284 -0.081772
0.762334 -3.036247 2.278028 -0.259568 -0.407680 0.875455
1.037650 -4.775126 0.623700 -0.250553 -0.793920 -0.553998
-1.656766 -2.206954 1.200131 -0.864346 0.344625 0.366250
1.218608 4.852049 -0.871716 0.853361 0.520950 0.019646
-0.887985 4.778968 0.029160 -0.633295 0.609378 0.477070
-0.043924 3.569727 1.067961 -0.210317 0.849874 0.483199
1.375944 2.243488 1.062114 0.995470 -0.073454 0.060369
0.802664 2.692612 1.861170 0.292282 0.954586 0.057765
0.536546 -1.262424 1.960652 0.287475 0.097544 0.952808
2.051808 -4.134087 -0.231687 0.965441 -0.023950 0.259521
1.326532 1.537099 -0.143635 0.998971 -0.040630 -0.020129
-0.111823 -4.905177 -2.104051 -0.051884 -0.994472 0.091291
-2.091515 -4.086173 -0.008502 -0.864047 -0.501022 0.048985
0.048796 3.611963 1.023219 -0.046027 0.856419 0.514225
-0.360993 0.455380 1.787600 -0.094251 -0.855744 0.508742
1.851176 -4.062361 0.821527 0.826257 -0.525759 0.202181
0.612915 1.460574 -1.977802 0.093040 0.292977 -0.951582
2.221288 -2.764075 -0.473357 0.986711 0.162446 0.003551
-1.543463 -2.197143 -1.953338 -0.052518 -0.196355 -0.979125
1.537921 4.002989 -1.455906 0.971478 0.129311 0.198769
-1.303209 2.125386 -1.168859 -0.548827 -0.724374 0.417219
-2.061316 -1.193057 -0.852929 -0.979482 0.150949 0.133530
-0.006303 -3.407204 -2.108228 0.114046 0.236342 -0.964954
-0.562311 -4.845591 -0.538297 -0.054893 -0.980361 -0.189419
-0.930259 0.865554 1.764188 -0.784695 -0.505206 0.359195
0.575227 3.474797 0.581349 0.855286 0.368594 0.364176
-1.226929 1.465132 -0.411315 -0.992897 -0.118076 0.014639
-1.160835 4.559123 -1.682908 -0.830192 0.111857 -0.546140
0.961655 -2.954775 2.268686 0.434394 0.092939 0.895915
0.526290 -3.684469 -2.146485 0.103057 -0.082928 -0.991213
-2.132451 -4.731425 -1.220762 -0.998934 -0.043024 -0.016722
-0.660823 -3.352305 -2.088874 -0.112072 0.137559 -0.984133
1.115010 -2.306448 2.071898 0.510107 0.337269 0.791227
-1.258153 2.113876 0.129527 -0.997299 0.069748 0.023020
1.306476 0.838181 -0.971630 0.657232 0.728022 0.195015
-1.074777 -3.427050 -2.022492 -0.282576 0.366924 -0.886294
-1.223015 1.604832 1.051110 -0.998465 -0.053157 0.015571
-1.029613 -2.250168 -1.968626 -0.068381 -0.196633 -0.978090
-0.077229 -2.006773 2.212163 -0.027172 0.174168 0.984341
-1.163420 4.600667 -0.378839 -0.908496 0.407584 0.092248
2.071770 -3.933564 -0.211560 0.876602 -0.476183 0.069421
1.884375 -1.550695 -0.236067 0.872644 0.082652 0.481312
1.982442 0.344040 -1.745230 0.950454 0.022556 -0.310046
-0.080305 -0.226965 1.709621 0.188773 -0.012713 0.981938
0.653685 2.749299 1.601323 0.663069 0.745741 -0.064886
-1.671900 -4.039520 1.354513 -0.872103 -0.268200 0.409274
-2.150051 -3.198277 0.193046 -0.968606 0.034679 0.246169
-0.556932 -4.578614 -2.374671 -0.002470 -0.212406 -0.977178
-0.260307 -0.798006 -2.081313 0.055816 0.144078 -0.987991
1.350634 2.143500 -0.582002 0.998542 -0.053674 -0.005788
-0.401213 -1.364956 -2.058401 0.071064 -0.110956 -0.991281
1.269222 1.131893 -0.978880 0.998075 0.027424 0.055620
1.320242 4.233530 -1.825807 0.411576 0.583861 -0.699794
-1.188901 1.207494 -0.575136 -0.993587 -0.089520 -0.069078
0.559342 2.906148 1.466466 0.907104 0.409381 0.097826
-0.040591 2.656888 2.163496 -0.080502 -0.470053 0.878959
-1.649974 -1.588027 1.057538 -0.935650 0.053864 0.348795
-1.241527 1.988209 -1.441489 -0.944436 -0.328473 -0.012109
0.733235 1.547675 -1.969676 0.059782 -0.048121 -0.997051
-0.182589 -4.818053 -0.029310 0.549274 -0.835642 0.000403
-1.201451 4.528959 -0.676293 -0.991010 0.121867 0.055206
-1.699950 -4.479435 1.050856 -0.876419 -0.284424 0.388579
-1.140880 1.737523 1.671012 -0.886307 0.171439 0.430195
1.392784 3.042716 -0.078427 0.998452 -0.016268 0.053192
-1.769053 -1.919429 0.821877 -0.948506 -0.005000 0.316720
-1.976559 0.642429 -1.745236 -0.906255 0.407437 0.112679
1.886143 -0.416984 0.026030 0.999657 0.025848 0.004116
1.787551 -0.794454 0.800530 0.949865 -0.002822 0.312648
0.592340 -2.596711 -1.885614 0.036345 -0.064279 -0.997270
1.850377 -1.631410 -0.144984 0.986458 0.021195 0.162641
-1.058152 -1.358680 -2.015818 -0.066927 -0.138853 -0.988049
2.065621 -4.093429 -1.623544 0.849932 0.144790 -0.506607
-0.476956 0.879290 -2.048432 -0.041327 0.067165 -0.996886
1.190687 1.184657 -1.664571 0.914411 0.179788 -0.362669
0.880918 4.977397 -1.112691 0.004709 0.998129 0.060968
-0.491364 -4.503521 2.068496 -0.558183 -0.116449 0.821506
-0.276052 -1.940291 -2.031278 0.008640 0.302536 -0.953099
-1.470613 -0.659294 1.102519 -0.864972 0.150492 0.478723
1.275532 4.306288 -1.222289 0.995956 0.089212 0.010670
0.341031 4.682191 0.591710 0.180398 0.559758 0.808782
-1.267149 2.208386 -0.656355 -0.999172 -0.039989 -0.007550
0.798233 0.603702 -2.010347 -0.054025 0.033502 -0.997977
-0.842074 -2.832231 -1.867492 -0.269572 0.196547 -0.942709
-0.435643 -4.891622 -2.250534 -0.073759 -0.908130 -0.412140
-1.187344 1.111472 0.561484 -0.978499 -0.206085 0.008305
1.759206 0.582776 -0.543616 0.224591 0.927224 0.299690
-1.264269 2.198024 -0.967779 -0.997204 -0.039420 0.063490
-0.708150 1.391149 2.128493 -0.446709 0.121618 0.886375
-1.451999 2.193735 -1.724128 -0.507834 -0.777375 -0.371205
-0.639123 3.134337 0.849668 -0.172971 0.729920 0.661285
-1.921590 -4.925848 -1.388201 0.001995 -0.999929 -0.011788
-0.496326 2.535492 1.995787 -0.176568 -0.548802 0.817092
1.973030 -1.127496 -0.393791 0.639375 0.294554 0.710238
-1.231018 0.870873 -1.263651 -0.839420 0.538925 0.070236
1.248899 1.670324 -1.478060 0.981366 -0.078470 -0.175394
-1.823848 -3.933700 1.089027 -0.811922 0.089424 0.576876
1.129261 -2.635895 2.140833 0.506027 0.152476 0.848933
2.032058 -1.102344 -1.614571 0.973317 -0.025766 -0.228014
1.333511 1.698579 1.140640 0.999458 -0.030647 0.012004
1.270585 1.078560 -0.977034 0.998075 0.027424 0.055620
1.707798 0.795767 -1.973907 0.448416 0.712103 -0.540215
-0.419506 -4.839479 1.348621 -0.011452 -0.943689 -0.330637
1.937257 0.311910 -1.869903 0.863473 0.036108 -0.503101
-0.486282 1.894888 -1.997659 -0.056208 -0.030038 -0.997967
-1.909838 -4.439969 0.497343 -0.944589 0.014742 0.327923
0.082629 3.416016 -1.949159 0.021193 0.041701 -0.998905
-0.813465 0.885091 1.988615 -0.643175 -0.570885 0.510310
1.790963 0.754875 -1.417780 0.338430 0.930757 0.138407
1.374711 2.343158 -0.059064 0.995614 -0.039564 -0.084774
0.834170 -4.813262 -0.045122 0.101127 -0.960043 -0.260944
0.574636 2.843413 1.829564 0.751572 0.655337 0.075324
2.235141 -3.269797 -0.024598 0.998606 0.049586 0.018114
-1.269699 2.419769 -0.188909 -0.997645 0.067567 0.011783
1.325983 1.520869 1.428744 0.996550 -0.076597 -0.031957
-1.925201 -3.179223 0.904359 -0.845765 0.096795 0.524702
0.856087 0.962990 -1.985684 -0.031847 0.010252 -0.999440
-1.830456 -0.945318 -0.251179 -0.979706 0.079250 -0.184110
-1.039900 1.047995 1.696403 -0.904186 -0.297409 0.306586
-0.553321 -3.616959 -2.162489 -0.028236 0.117876 -0.992627
1.852214 -2.135142 0.849418 0.970675 0.004797 0.240350
-1.268024 2.593134 -0.187474 -0.995722 -0.081577 0.043401
-0.992687 4.926384 -1.237342 -0.084437 0.967614 0.237896
0.867811 4.952487 -0.250212 0.245272 0.962334 0.117281
-1.610834 -4.907106 -0.919034 0.210810 -0.977201 0.025251
2.050931 -0.893249 -1.283098 0.996010 -0.087360 0.018209
-1.006778 -3.300364 2.097060 -0.605935 -0.175957 0.775811
0.507797 2.884264 2.028484 0.755197 0.614487 0.228217
0.789664 2.730511 1.339771 0.131619 0.942546 0.307057
-0.815946 0.352225 1.279525 -0.778372 -0.309321 0.546312
2.040303 -0.721170 -1.388963 0.997488 -0.029968 -0.064188
2.251236 -3.204532 -0.203128 0.995846 -0.048654 0.076962
-1.569968 -0.931071 0.991820 -0.914646 0.301983 0.268755
0.076175 -4.862204 0.541621 -0.184262 -0.982459 -0.028686
-2.153391 -1.929257 -1.350819 -0.991571 0.129292 -0.008405
-0.571646 0.958295 2.216539 -0.336714 -0.473866 0.813679
0.827657 -4.863733 -1.121972 0.544092 -0.511710 0.664918
-0.973750 -4.726933 0.209633 -0.121535 -0.991326 -0.050015
0.843916 4.635726 0.292880 0.568891 0.536164 0.623612
-1.719030 -2.252404 1.052779 -0.918559 0.264304 0.293928
-0.702179 -1.642032 1.969037 -0.439468 0.182498 0.879524
-0.616170 3.761591 0.269982 -0.175659 -0.247064 0.952945
-1.171238 1.039779 -1.597537 -0.966197 0.160112 -0.202059
-0.274633 3.930788 -1.937360 -0.078621 -0.104189 -0.991445
-1.350956 2.593404 -1.911586 -0.065798 -0.072969 -0.995161
-0.416834 -3.959045 -2.255402 -0.003112 0.262798 -0.964846
1.272103 0.848113 0.289271 0.998203 -0.058522 0.012912
-0.676039 -3.677644 -2.174389 -0.053167 0.350773 -0.934950
0.068947 3.906904 0.539415 -0.076563 0.783270 0.616949
1.890700 -4.852138 -0.360414 0.628725 -0.768178 0.120864
1.340964 1.718014 0.726141 0.995258 -0.063345 0.073814
-1.060740 -3.516791 2.078613 -0.463265 -0.370974 0.804838
0.364244 3.112395 1.833429 0.585884 0.756382 0.290905
0.692602 2.251899 -1.954829 0.187308 0.086728 -0.978465
-1.815717 -0.360208 -0.503877 -0.988260 0.087660 0.125130
1.358748 0.881195 -1.333086 0.538897 0.828467 0.152421
-1.129798 0.724867 0.507846 -0.984339 -0.119640 0.129471
-1.007553 -4.818005 -0.609947 0.629297 -0.708801 0.318726
1.339699 0.129123 1.211902 0.704238 0.298979 0.643941
0.705093 4.965154 -0.235277 0.075944 0.983344 0.165129
-0.795830 2.036323 1.815201 -0.340138 0.618453 0.708394
1.262643 -2.726966 2.071889 0.516912 0.072128 0.852995
-1.962605 -4.925876 -0.195382 -0.483037 -0.675284 -0.557375
1.433348 -4.884255 -0.912017 0.202110 -0.975336 0.088716
1.318572 4.203590 -0.485709 0.999965 -0.006490 0.005292
-0.471156 0.134144 1.545025 -0.284208 0.403918 0.869527
-1.641663 0.690582 -1.087082 -0.296513 0.902867 0.311307
0.267945 3.564594 1.050994 0.320974 0.791879 0.519523
1.264217 -2.238898 1.970782 0.548763 0.346855 0.760625
0.177358 0.612580 -2.024706 0.024018 0.100180 -0.994679
1.620298 -1.516586 1.443880 0.745644 0.403962 0.529934
0.971708 -4.900075 -1.686479 -0.092495 -0.991331 0.093311
-2.183125 -2.266732 -0.978598 -0.997483 0.007775 0.070483
1.857252 -3.212222 1.352998 0.880550 -0.201820 0.428836
-1.779376 0.373490 -0.464894 -0.959823 0.280592 0.002652
1.253564 3.634535 -1.901179 0.017879 -0.046291 -0.998768
-1.122894 -3.088541 2.026142 -0.473832 0.185906 0.860768
0.081318 3.832395 0.651775 -0.101154 0.883215 0.457930
1.796908 -1.373190 0.942475 0.949427 0.241989 0.200073
-1.807048 -2.149622 0.666196 -0.988952 -0.025271 0.146063
-0.287532 1.110303 -2.035488 0.046943 0.044519 -0.997905
-1.355788 -4.861528 1.122854 -0.099831 -0.991487 0.083592
-1.819339 -2.747950 1.134246 -0.951852 0.202594 0.230074
-2.101034 -1.808365 -1.803275 -0.716272 0.011597 -0.697725
-0.623697 -1.917043 2.076355 -0.380747 0.271344 0.883970
0.353093 -1.210845 -2.036823 0.067611 -0.060489 -0.995876
2.104947 -1.622211 -0.648327 0.977192 0.195714 0.082412
-0.738111 4.167092 0.462851 -0.223941 -0.561406 0.796664
-1.598847 0.337536 -2.054882 -0.092077 0.107185 -0.989966
-1.228590 -4.931444 -1.829874 -0.097767 -0.991032 0.091091
-0.421382 4.907293 0.254160 -0.091638 0.955395 0.280753
0.025435 -4.341546 2.306307 -0.090547 0.007573 0.995863
-0.475740 -4.853809 -0.333640 0.198703 -0.786957 0.584137
1.526137 2.285166 -1.582531 0.853650 -0.486795 -0.185236
-1.002265 -3.565757 -2.088970 -0.306858 0.202827 -0.929892
0.985820 2.953001 0.987442 0.268569 0.724255 0.635079
-0.295024 -4.812781 -0.337686 0.705579 -0.670525 0.229249
-1.090111 -4.872216 0.062025 -0.003312 -0.958781 -0.284126
2.003923 -1.151212 -1.701075 0.912863 -0.043880 -0.405901
-0.444259 -0.211473 1.675919 -0.167296 0.282525 0.944559
0.010789 4.951468 -0.464563 -0.042741 0.996092 -0.077290
1.187083 4.901039 -0.880214 0.700190 0.713915 0.007691
-0.833585 -4.833883 1.317965 0.136425 -0.985734 -0.098577
1.358815 2.359913 -0.496539 0.998151 0.022036 -0.056653
-1.676110 0.101971 0.430259 -0.827229 0.227724 0.513648
1.395712 2.660642 0.278594 0.996005 0.028997 -0.084457
-0.296350 4.126496 0.543778 -0.150132 -0.409189 0.900014
-0.357425 4.917672 -0.171527 -0.102387 0.986556 -0.127372
-0.418328 -0.400287 1.743133 0.045487 0.205701 0.977557
-2.009544 -1.474682 -1.904687 -0.647458 -0.003774 -0.762091
0.573345 -0.349256 1.704401 0.196785 0.256418 0.946322
0.317778 -0.471765 1.784159 0.113226 0.318228 0.941228
-1.411667 -3.632353 1.754530 -0.691261 -0.041209 0.721429
2.079263 -1.315027 -0.881619 0.993997 0.103673 -0.034967
1.346884 -4.278139 1.735734 0.618970 -0.670229 0.409474
-1.684565 -4.289402 1.142182 -0.826282 -0.390774 0.405653
0.555773 -4.847782 1.897412 0.030834 -0.999418 -0.014566
-1.947910 -1.102145 -0.528303 -0.428536 0.274010 0.860974
1.647759 -2.666255 -1.720742 0.220990 -0.104701 -0.969639
-0.382633 -3.344685 -2.100290 -0.006588 0.617599 -0.786465
1.338005 0.557290 0.156626 0.619813 0.745384 0.245429
-1.425270 -3.684172 -2.005372 -0.413170 0.333697 -0.847311
-0.368667 -4.599812 2.155402 -0.617430 -0.328301 0.714841
-1.403054 2.216925 -1.821493 -0.340513 -0.626956 -0.700697
-0.602984 -4.863546 0.819927 0.277981 -0.884824 -0.373916
-0.234599 -3.048411 -2.005309 -0.000010 0.287835 -0.957680
-2.206888 -2.623173 -1.062655 -0.988334 0.151801 -0.012303
1.624458 -2.677331 -1.724856 0.220990 -0.104701 -0.969639
-1.237913 4.183835 -0.764587 -0.999327 0.011923 -0.034703
1.695181 0.802670 -1.565128 0.299654 0.953838 0.020020
-1.242095 -4.862860 -0.013752 -0.212478 -0.931639 0.294790
-1.473023 0.592243 -2.049292 -0.073108 0.298899 -0.951480
-2.084201 -1.209063 -1.231766 -0.991290 0.034960 0.126973
-1.810197 0.020886 -0.148518 -0.987895 0.153553 0.022035
-0.313935 -2.051924 -2.016741 -0.023583 -0.268141 -0.963091
-0.059056 -4.142078 2.324505 -0.100430 -0.091054 0.990769
0.768748 -3.356531 2.194907 0.801072 0.049096 0.596552
1.342269 3.997636 -0.383096 0.997319 0.060325 -0.041430
1.861242 -1.661286 0.049863 0.959322 0.272643 -0.073258
-1.052589 -4.629767 1.817354 -0.547158 -0.046112 0.835758
0.795448 2.694102 1.873059 0.292282 0.954586 0.057765
1.108963 2.290343 1.550477 0.817316 0.239233 0.524177
-1.235208 -1.382110 -2.021800 0.052811 -0.013869 -0.998508
-1.275115 -4.820811 0.053982 -0.330273 -0.894330 0.301815
1.369412 2.080730 0.107603 0.995937 -0.075412 -0.049227
0.691903 -1.263001 -2.015000 -0.015936 -0.158145 -0.987287
-0.794994 4.923237 -0.355316 -0.016051 0.994072 0.107530
-1.594772 -4.773564 1.111264 -0.704313 -0.618385 0.348632
-1.898196 -0.543536 -1.999085 -0.347037 -0.011296 -0.937783
2.180650 -4.468739 -1.241623 0.988091 -0.153255 0.013728
-0.591033 -3.965793 -2.243479 0.074117 0.242721 -0.967261
0.511260 -1.483066 2.042407 0.111956 0.214868 0.970205
0.011946 -4.865029 1.031642 -0.496530 -0.765397 0.409419
-0.508593 -0.265582 1.676304 -0.243650 0.111120 0.963477
-2.112983 -4.213829 -1.227430 -0.986783 0.161269 -0.015866
-1.179035 1.315164 1.498088 -0.961487 -0.204039 0.184147
2.013850 -0.652643 -1.615946 0.989691 0.027387 -0.140579
-1.249760 2.748747 0.302014 -0.993902 0.003344 0.110219
0.265651 -2.505868 2.339026 0.006594 0.156517 0.987653
-1.206805 1.340030 0.877573 -0.995136 -0.013909 0.097521
0.012158 -0.007661 1.648267 0.125853 0.117776 0.985033
1.162896 1.356107 2.044100 0.489198 0.201563 0.848562
-1.219338 4.366217 -1.036672 -0.992701 0.115328 -0.035279
-1.593089 -3.278342 1.512775 -0.809375 0.357904 0.465637
1.307510 2.010153 -1.167038 0.973890 -0.222365 -0.045745
-0.300675 2.359001 1.954547 0.291565 -0.788724 0.541207
1.476676 -2.749798 -1.732993 0.209608 -0.105536 -0.972073
1.025812 -4.844498 0.802293 -0.522915 -0.842005 -0.132620
-1.112105 -1.391442 1.665969 -0.682431 0.153162 0.714724
-1.215220 1.386550 0.516855 -0.984008 -0.173239 0.041418
0.928887 -4.838827 0.994763 -0.048562 -0.945110 -0.323123
-1.567269 -0.982131 -2.034596 -0.035904 -0.148819 -0.988212
-0.342795 -4.689846 -2.368148 0.018679 -0.156784 -0.987456
1.552147 2.633946 -1.383252 0.682041 0.226235 -0.695441
1.190511 2.632401 -1.914271 0.055398 0.107872 -0.992620
2.010453 -4.586177 -1.966441 0.767367 0.090711 -0.634760
1.735098 -1.217161 1.055579 0.973074 0.062068 0.221979
2.188232 -3.701855 -0.748356 0.918654 -0.393869 -0.030702
1.659882 -2.179365 -1.826972 0.358592 -0.077104 -0.930305
1.273353 0.829912 -0.524332 0.998404 -0.050091 0.026095
-0.266053 -4.853495 1.532181 -0.006080 -0.998136 0.060725
-0.953102 0.938528 1.803240 -0.839958 -0.418634 0.345277
-1.234204 3.812056 -0.211025 -0.992222 0.023573 0.122228
1.057714 2.943834 0.961650 0.320536 0.578480 0.750079
1.749723 -4.050747 1.162766 0.831694 -0.387268 0.397881
-1.378132 4.013088 -1.315303 -0.701805 -0.382587 0.600914
-2.205749 -2.561165 -0.925424 -0.998623 0.052460 0.000543
-0.231537 3.906571 0.454630 -0.342628 0.058752 0.937632
-2.156481 -2.610600 -0.526748 -0.856121 0.395296 0.332863
-1.281156 0.352308 -2.066804 0.002010 0.056771 -0.998385
-1.224950 0.552491 -0.131368 -0.271834 0.902793 0.333274
1.282789 1.102096 -0.381157 0.996821 -0.070954 -0.036237
1.879813 -1.487299 0.320901 0.990636 -0.044992 -0.128900
1.641143 -4.877813 -0.890488 -0.106752 -0.993273 0.044853
0.255242 1.424607 -2.000095 0.037690 0.050341 -0.998021
1.218317 2.195933 1.490540 0.360314 0.617050 0.699588
0.678653 2.731804 1.544465 0.173960 0.983917 -0.040564
-1.120453 2.919361 0.826023 -0.586176 0.552679 0.592405
-1.186296 -1.533507 -2.014918 -0.008038 0.011006 -0.999907
-1.284778 -4.547933 -2.298931 -0.264640 0.297317 -0.917370
-0.178270 3.864004 0.494728 -0.499198 0.651721 0.571018
1.105931 4.948714 -1.260587 0.374547 0.838087 -0.396642
2.019033 -0.382271 -0.643047 0.983374 -0.101834 0.150348
1.033271 1.003678 2.091002 0.608182 -0.423278 0.671528
-1.186333 1.273311 -0.936912 -0.999805 -0.006100 0.018776
-1.250398 1.988413 -1.060945 -0.998884 -0.042389 0.020835
0.410642 0.790202 2.224224 0.091797 -0.664878 0.741290
1.820717 -0.496806 -1.923623 0.330651 -0.107626 -0.937596
-2.164467 -3.400764 0.146291 -0.987456 -0.050196 0.149705
1.349415 3.396602 -0.746696 0.995164 0.075175 -0.063231
-2.074097 -3.236106 -1.496114 -0.640895 -0.224161 -0.734170
0.491404 -3.814602 -2.187837 0.101123 -0.037942 -0.994150
-0.964348 0.771319 1.510659 -0.854256 -0.477494 0.205538
-2.051157 -2.480647 -0.443507 -0.695409 -0.001838 0.718612
0.868976 3.267301 -1.931807 0.066414 0.024675 -0.997487
-1.639281 0.233291 0.453961 -0.982133 0.051459 0.181017
-1.226647 4.288810 -0.399695 -0.989563 0.103030 0.100745
-2.217195 -2.801371 -1.186417 -0.996296 0.035348 -0.078394
2.073382 -1.766173 -1.581548 0.946792 0.084557 -0.310539
-0.895411 -4.140676 2.070530 -0.436021 -0.517280 0.736415
1.631756 -3.390486 1.689888 0.786003 -0.171170 0.594054
2.136357 -2.189581 -0.411882 0.976077 0.179905 0.122094
1.215138 4.649775 -1.478804 0.964030 0.218173 -0.151810
0.840314 -4.777462 0.396261 0.002348 -0.983234 -0.182334
1.068532 -0.166126 1.495265 0.461789 0.246992 0.851907
-1.178921 -4.848062 0.502717 0.158279 -0.930380 0.330667
0.565240 3.604640 0.436091 0.761416 0.465932 0.450725
-1.249563 3.456778 -0.670393 -0.994852 -0.037753 0.094039
-1.825733 -1.548475 -0.252116 -0.988054 -0.040439 -0.148706
1.280725 1.049325 0.534471 0.998756 -0.024932 0.043185
0.642844 4.979851 -0.731624 -0.037425 0.998133 0.048270
2.207397 -2.671915 -1.056810 0.974501 0.210550 -0.077562
-1.023344 3.026046 -1.930664 0.011468 0.110949 -0.993760
0.423628 3.550685 0.930322 0.690590 0.546535 0.473693
-0.295368 -4.839825 -0.416337 0.376481 -0.840196 0.390298
1.470412 4.168205 -1.695589 0.784979 0.502091 -0.362923
-0.934070 4.752801 -1.832695 -0.002544 -0.065448 -0.997853
-1.111047 1.253115 1.704134 -0.958153 -0.124226 0.257897
1.535053 -3.650006 1.761549 0.710220 -0.151633 0.687455
-2.026192 -1.698323 -0.470813 -0.508813 0.204976 0.836118
1.863564 -1.796024 -0.163021 0.976112 0.061795 0.208294
0.780846 3.799726 -1.924219 0.142600 -0.249120 -0.957917
-1.572453 -4.689523 -2.230737 -0.379373 -0.021684 -0.924990
0.626128 2.370603 1.938066 0.305771 0.025072 0.951775
-1.475188 -1.582056 -2.007840 -0.057739 -0.192732 -0.979551
2.161913 -2.419332 -1.351015 0.990116 -0.080459 -0.114875
-1.046455 1.789538 1.740819 -0.554569 0.517136 0.651939
-0.888449 -3.413428 2.159932 -0.395110 0.152506 0.905886
-2.093590 -1.691418 -0.684065 -0.975550 0.157219 0.153569
-2.097554 -4.366028 -1.507328 -0.989830 0.091985 -0.108514
1.844026 -1.380807 -0.096976 0.980488 -0.114914 -0.159493
-1.504021 2.936044 -1.249280 -0.985808 0.041611 -0.162636
-2.007249 0.131282 -1.438056 -0.995725 0.092215 0.005355
-1.231163 -4.887898 -1.380674 0.517955 -0.847485 0.116154
0.536876 3.048336 -1.956231 0.100499 0.079508 -0.991755
-0.741325 -4.403726 -2.342393 -0.019363 0.228515 -0.973348
-0.422603 -2.009986 -2.027742 0.097736 -0.162154 -0.981913
-1.184718 4.515809 -1.546535 -0.969532 0.236582 -0.063530
2.252057 -3.487340 -0.438298 0.983422 -0.181200 -0.006855
-1.127839 4.418641 -0.001566 -0.856240 0.383945 0.345600
0.390301 -2.091544 2.231101 0.155717 0.227659 0.961209
-1.738298 -0.858656 0.591523 -0.887294 0.282254 0.364749
0.170553 0.857634 2.303477 0.001688 -0.657160 0.753749
0.117775 -1.868936 2.187080 -0.000038 0.390806 0.920473
-1.416030 -0.481809 -2.045197 -0.021283 -0.061639 -0.997872
0.494860 0.098006 1.580023 0.173565 0.348607 0.921058
-0.028637 2.277171 -1.990186 -0.043175 0.030248 -0.998610
-1.178129 1.345130 -1.259149 -0.993913 -0.066555 -0.087786
-1.609909 -1.093390 -2.028208 -0.027627 -0.137310 -0.990143
0.453699 -1.723771 2.121395 0.155016 0.195886 0.968297
1.139419 0.364047 1.105982 0.788973 0.329312 0.518725
1.207300 4.778395 -1.442485 0.940192 0.202419 -0.273982
1.694132 0.776721 -1.341718 0.300314 0.928564 0.218129
-0.591349 -0.968083 -2.080090 -0.052078 -0.148158 -0.987592
-0.047974 4.245154 -1.933943 0.005286 -0.011023 -0.999925
-1.208062 1.386093 0.684990 -0.984008 -0.173239 0.041418
-1.226253 -4.890182 -1.419232 0.517955 -0.847485 0.116154
-0.756978 4.888739 -1.785632 -0.087045 0.890043 -0.447490
1.677182 -3.830625 -1.904451 0.605392 0.382619 -0.697927
-0.692557 -0.076268 -2.073985 -0.077239 0.016100 -0.996883
2.030205 -0.761657 -1.478503 0.986921 -0.119815 -0.107846
1.881795 -0.021606 0.294724 0.962168 0.026486 0.271167
0.636546 -4.857009 -1.506916 0.150656 -0.897155 -0.415229
-0.815019 4.763612 -1.843497 -0.196461 -0.136050 -0.971027
1.781603 -2.699688 1.304524 0.482278 0.725537 0.490922
-0.380311 -0.734537 -2.079149 -0.003505 0.022007 -0.999752
-1.855398 -2.415691 0.278319 -0.978913 0.194398 0.062764
-0.446986 1.702505 2.095414 -0.375033 0.666543 0.644260
1.465174 -3.099975 -1.678378 0.366283 0.336232 -0.867631
1.398321 2.567982 0.277140 0.993718 0.092821 -0.062524
-1.671893 -0.443630 0.629539 -0.923555 0.148514 0.353539
1.591234 -4.898536 -1.947604 0.076004 -0.996757 -0.026419
1.194148 4.670118 -0.217226 0.879092 0.430168 0.205312
-1.257657 2.090823 -0.845530 -0.997904 -0.059432 -0.025595
0.724137 -4.792303 -0.603482 0.258804 -0.906861 -0.332601
1.386806 2.507980 0.619400 0.994773 -0.097214 0.031252
-0.958296 2.706522 1.137918 -0.447327 0.648400 0.616016
1.896224 -0.887300 -1.845541 0.522672 -0.025660 -0.852148
-0.594088 -4.915802 -1.113979 0.108579 -0.934012 -0.340341
0.465381 3.184139 -1.956872 0.009359 0.017947 -0.999795
-2.098639 -1.463554 -1.113352 -0.994654 0.070804 0.075168
-0.266147 -4.846143 1.031295 0.125948 -0.834322 -0.536697
-1.264523 3.180630 -0.951105 -0.960339 -0.056987 0.272948
1.359161 1.968660 1.140958 0.994725 -0.102507 0.003780
