-3.633227 -2.173151 -1.351777 0.204830 -0.298537 0.932159
3.633607 3.885248 -0.853661 -0.545159 0.833297 -0.091746
-0.049886 3.538482 -0.287100 0.166962 0.879457 -0.445734
-3.283306 -2.167686 -2.274810 0.824769 -0.087584 -0.558646
-2.730080 3.573591 0.384238 -0.279576 0.791341 0.543706
6.136905 0.517413 -0.573536 0.270273 -0.089213 -0.958642
-1.159475 1.583673 1.876563 0.039339 0.034724 0.998622
5.953559 1.470410 0.557439 0.953076 0.162118 0.255663
-1.935979 0.853323 -1.928053 0.078081 0.048755 -0.995754
-3.085938 -0.956558 0.764206 0.115470 -0.954436 -0.275170
6.012891 1.324182 -0.543718 0.806485 0.580107 -0.114276
3.183138 0.714432 -1.292389 0.570181 -0.064094 -0.819015
-3.693694 -2.327494 2.536062 0.202469 0.169615 0.964488
3.359764 2.298160 -1.318712 -0.565992 0.223881 -0.793429
-4.277302 -2.483351 2.128217 -0.923762 0.049490 0.379755
4.381747 0.144048 0.685795 -0.159936 -0.729985 0.664486
3.357398 3.015645 0.273151 -0.952012 0.201200 0.230632
6.777775 -0.151803 0.373695 0.350374 -0.091942 0.932086
-3.336674 -0.805245 -0.352632 -0.276991 -0.941651 0.191234
-1.299580 2.596786 -1.491902 -0.062935 0.492372 -0.868106
-4.165587 -2.645973 -2.332932 -0.593286 0.166245 -0.787639
4.787004 0.261144 0.906639 -0.001636 -0.474803 0.880091
1.218262 3.238313 0.290400 0.239173 0.841297 0.484784
-3.481574 -0.799747 0.566859 -0.276988 -0.941650 -0.191238
0.604745 -1.317416 -0.163210 -0.340261 -0.940331 -0.000000
1.320965 -0.582098 1.959352 -0.213515 0.311671 0.925890
-3.316290 1.257696 1.868179 -0.249963 0.260181 0.932644
-2.992325 -3.647371 -2.535034 -0.282315 -0.606262 -0.743468
2.632583 -0.901803 0.775754 0.608852 -0.767934 0.198938
-3.613679 -1.417004 -2.350944 -0.318846 0.198154 -0.926862
2.081408 -0.137522 -1.901297 0.082018 -0.084169 -0.993070
-2.155081 3.444848 -0.670568 -0.131081 0.755764 -0.641591
5.606110 -0.463782 -0.334931 0.034135 -0.460393 -0.887058
2.622698 2.681824 0.535889 0.248906 0.900464 0.356664
-1.814319 1.911579 -1.772698 0.038077 0.222906 -0.974096
-2.456670 1.053337 -1.947437 0.035117 0.170227 -0.984779
-6.653010 0.373665 0.326849 -0.029662 -0.491250 0.870513
-3.749750 1.612731 1.532786 -0.519567 0.201496 0.830331
2.361870 -1.012341 -1.039448 0.583404 -0.760767 -0.284383
1.781085 -1.300803 1.444188 0.435389 -0.883012 0.175292
-1.773691 1.132252 -1.894919 0.104698 0.058374 -0.992790
2.205181 1.115800 -1.740747 0.187740 0.220047 -0.957253
-4.304313 -2.096137 -1.880734 -0.998879 -0.024856 -0.040291
-4.451315 0.183586 0.835267 -0.867005 -0.400749 0.296147
-2.758368 -0.924995 -0.372805 -0.177768 -0.875561 -0.449212
-4.129455 2.798113 0.406136 -0.365738 0.703424 0.609451
-4.767257 0.310056 -0.456907 -0.652068 -0.549974 -0.521858
-1.153180 2.839850 1.384560 0.118459 0.747073 0.654102
-1.704103 1.370093 -1.873676 0.092445 0.053948 -0.994255
0.382297 -2.419296 -1.435768 -0.970842 -0.061776 0.231622
-4.180402 1.617089 1.237525 -0.635811 0.350134 0.687859
-3.039577 -3.443632 -1.769840 -0.516010 -0.563648 0.645007
1.526791 0.639518 1.914002 0.036219 0.022874 0.999082
1.592587 -3.384302 -1.563794 0.750531 0.651144 0.112763
0.602243 2.955509 0.946621 0.173796 0.756996 0.629882
1.341994 -3.038810 1.823270 0.723975 0.543893 0.424313
-4.128639 -1.777649 2.187288 -0.565442 0.265097 0.781024
3.446533 0.670507 -1.138217 0.341230 -0.041735 -0.939053
-3.087197 0.466632 -2.105893 0.155385 0.125764 -0.979816
1.791255 -3.563487 1.663739 0.704978 0.686147 0.179467
-2.903333 -0.183708 -2.160861 0.113021 0.173032 -0.978410
1.455861 -1.758256 -1.067236 0.841383 -0.502662 0.198509
-2.792588 -3.636800 1.918687 0.895840 -0.079387 0.437228
3.539283 3.922392 -0.043569 -0.937730 0.329268 0.110652
-3.395343 1.507071 -1.745998 -0.249965 0.260181 -0.932643
-4.155568 -0.617689 -1.225666 -0.977902 -0.047867 0.203510
-8.877267 0.457764 0.046232 -0.320637 -0.947202 0.000000
1.613522 3.118923 0.302585 0.239173 0.841297 0.484784
1.440926 0.715987 -1.879344 -0.031755 0.048567 -0.998315
-2.866681 2.453468 -1.444354 -0.066246 0.512748 -0.855980
3.349542 0.654387 1.202884 0.640683 -0.070847 0.764530
-7.526069 0.276504 0.213924 -0.077795 -0.542439 0.836486
0.247131 -1.188508 -0.115443 -0.336770 -0.941587 -0.000000
5.231330 1.308029 1.000818 0.257619 -0.036886 0.965542
1.475519 -3.233440 -1.668815 0.830810 0.555421 0.035517
-1.844468 1.698128 -1.822721 0.038077 0.222906 -0.974096
2.036327 2.065638 -1.367197 0.178341 0.627559 -0.757868
-1.451876 3.539167 -0.585722 0.038211 0.770963 -0.635732
-3.234606 -2.340563 -2.174176 0.999601 0.024423 0.014167
-3.926459 2.384107 0.913394 -0.504257 0.578869 0.640809
4.439067 -0.296001 -0.150603 -0.142977 -0.723972 -0.674849
-0.825463 0.569026 -1.755583 -0.014351 -0.229092 -0.973299
-4.110315 0.031317 1.343159 -0.832794 0.116558 0.541174
0.912364 -3.636168 -1.254854 -0.140393 -0.973569 0.180149
-5.208669 0.403547 -0.337747 -0.095358 -0.621490 -0.777597
-0.877483 -0.665894 -0.890543 -0.022116 -0.838087 -0.545088
3.435685 1.572318 -1.465944 0.070426 -0.582025 -0.810116
-1.178814 2.059722 -1.736095 -0.001685 0.224562 -0.974458
1.784905 0.097574 1.967504 -0.012928 0.000904 0.999916
-0.897627 -0.761575 0.774038 -0.022119 -0.838087 0.545089
-2.460311 3.279412 0.797993 -0.192324 0.645863 0.738832
1.926224 1.217503 1.795140 0.164285 0.236475 0.957648
-9.916021 1.216987 0.114772 -0.257949 0.191588 0.946972
3.527040 3.871738 0.033190 -0.969484 0.238140 -0.058226
2.979467 1.238438 1.446518 0.486236 0.348232 0.801442
1.327367 2.128123 -1.471666 0.119910 0.462704 -0.878366
6.298239 -0.963069 0.204636 -0.901331 -0.292057 0.319851
-4.223169 -0.287383 0.987309 -0.908493 -0.417896 0.001866
-2.882490 0.524252 -2.066034 0.155385 0.125764 -0.979816
-3.115267 -3.310883 1.828379 0.704397 0.502871 -0.500944
1.497591 -1.673581 -1.457421 0.897526 -0.399940 -0.185730
-3.857742 -0.598212 0.130357 -0.450270 -0.892806 0.012419
-4.896115 1.460926 0.743835 -0.552559 0.123576 0.824262
-3.478024 0.296179 -2.007289 -0.360110 0.153772 -0.920149
2.155517 -1.155840 -1.078895 0.583403 -0.760768 -0.284382
5.424440 -0.586175 0.129558 -0.435072 -0.846168 0.307753
-1.657540 3.357194 0.843015 0.008438 0.731241 0.682067
3.910727 3.398360 -0.816735 0.913164 0.330360 0.238732
-3.686234 -3.553277 -2.575003 -0.437151 -0.615264 -0.656010
0.480658 0.241250 1.686634 -0.040903 -0.177678 0.983238
-2.885330 -0.903389 0.396098 -0.177767 -0.875562 0.449211
-2.517012 2.023075 -1.729229 -0.066246 0.512748 -0.855980
3.796125 1.883409 -1.773769 -0.706814 -0.041504 -0.706181
-1.447924 3.343584 0.851168 0.045300 0.805732 0.590545
-2.186882 3.424283 0.719720 -0.131082 0.755763 0.641592
-1.077928 -0.059205 -1.496198 -0.180896 -0.664998 -0.724606
4.758169 2.297156 0.966751 0.563718 0.816528 0.124513
-3.357366 0.305135 -2.053013 -0.360110 0.153772 -0.920149
2.227842 0.997703 -1.763450 0.187740 0.220047 -0.957253
-2.183452 -0.265217 1.736049 0.604238 -0.449252 0.658080
-3.914485 -2.245897 2.460269 -0.480710 0.173731 0.859497
3.519861 0.914792 -1.127712 0.317362 -0.292063 -0.902209
-2.149136 3.716908 -0.333870 -0.131987 0.827333 -0.545984
0.469327 -3.059906 1.607377 -0.958926 -0.199106 0.202032
2.146965 0.175152 1.920830 0.191725 0.016127 0.981316
1.084602 -1.740335 -1.988141 0.511589 0.091418 -0.854353
3.034157 2.261837 -1.119832 -0.134669 0.741535 -0.657260
-2.034602 1.947883 -1.773000 0.038077 0.222906 -0.974096
-3.171929 -0.551818 -2.235469 0.109818 0.136903 -0.984478
0.735376 2.145725 -1.544592 0.142122 0.461303 -0.875786
-0.208902 3.247236 -0.779477 0.147410 0.760087 -0.632881
-3.515950 -0.861455 2.286688 -0.548610 0.171893 0.818218
-3.651300 -1.103755 2.301254 -0.299540 0.268775 0.915443
3.741890 3.783846 -0.037806 0.952214 0.305432 0.000000
1.300434 -1.978872 -1.675503 0.949565 0.252981 -0.185273
-1.799293 -0.289972 1.442304 0.369068 -0.620504 0.691928
5.420907 2.071476 0.851038 0.116001 0.731752 0.671627
-7.267270 0.504685 -0.333666 -0.100073 -0.181206 -0.978340
1.189287 2.860995 0.880139 0.210104 0.753216 0.623316
6.599224 2.171701 -0.734044 0.310484 -0.428206 -0.848669
0.716920 3.394050 -0.221327 0.204965 0.872783 -0.442989
6.912283 2.526548 0.696251 -0.379541 0.870510 -0.313308
5.583915 0.647666 0.789425 0.426633 -0.056257 0.902673
1.760179 -1.413799 -1.251909 0.733635 -0.607042 -0.305419
5.973512 1.343458 -0.001178 0.844058 0.536251 -0.000000
0.769285 1.364734 -1.762732 0.010094 0.117774 -0.992989
-3.395932 -0.120426 2.149254 -0.336456 0.212121 0.917498
3.339228 1.540112 -1.454050 0.122885 -0.490107 -0.862957
4.715749 1.151541 1.520464 0.952078 -0.109610 0.285542
1.057221 0.200453 1.803200 -0.154378 -0.202033 0.967135
2.506894 2.532925 0.889905 0.124633 0.796301 0.591921
-2.168129 -0.588795 1.456631 0.476575 -0.806655 0.349549
2.273072 -0.781786 1.607200 0.405926 -0.473295 0.781803
3.805777 2.498134 -1.983778 -0.743928 -0.271925 -0.610433
-3.961563 0.800947 1.590556 -0.610806 0.149852 0.777471
3.069456 2.696893 0.262791 0.212850 0.953776 0.212145
3.835535 3.084388 -1.764186 0.878568 0.382648 -0.285830
1.852655 -1.089443 1.641640 0.540303 -0.603477 0.586419
-1.750716 -0.110404 1.577426 0.369068 -0.620504 0.691928
-2.000262 3.737540 0.350886 -0.002337 0.838465 0.544950
2.658297 1.208430 -1.580864 0.320004 0.220339 -0.921438
3.475233 1.558836 1.459071 0.257978 -0.201695 0.944863
0.120701 1.864171 1.776311 0.067983 0.279884 0.957624
3.606281 2.678715 -1.772191 -0.899509 -0.010517 -0.436776
1.570968 -1.623114 0.971343 0.625901 -0.774920 -0.088017
0.444804 -1.250530 -1.446608 -0.933395 0.222455 0.281582
1.778161 -1.041566 1.742153 0.477457 -0.428072 0.767326
0.739619 2.335921 1.473673 0.236184 0.695065 0.679045
-4.554648 1.146211 1.003671 -0.640385 0.004393 0.768042
0.647405 0.480234 -1.705332 -0.040903 -0.177678 -0.983238
4.383970 2.618534 -1.059386 0.677112 0.586979 -0.443819
-3.101881 -1.090312 -1.045526 0.612873 -0.453513 0.647080
-0.837664 -0.912872 0.492147 -0.050238 -0.916484 0.396905
3.419000 2.923438 -0.943040 -0.982272 0.144708 -0.119167
-7.023166 1.158269 0.329552 -0.064052 0.271102 0.960417
-2.667283 -0.966237 -1.195310 0.515739 -0.848363 0.119555
-6.608159 0.616323 -0.386959 -0.014053 -0.247794 -0.968711
6.411995 0.235438 0.505534 0.531059 0.115590 0.839414
3.573623 2.844893 -1.680007 -0.941526 0.134679 -0.308854
1.008342 2.269172 1.467441 0.165345 0.613344 0.772315
1.342607 2.104910 1.510072 0.106289 0.417115 0.902617
0.138200 1.491295 -1.850001 0.010125 -0.021504 -0.999718
-3.730528 -2.441587 2.563859 0.202469 0.169615 0.964488
2.331348 -0.325760 1.789847 0.442064 -0.147875 0.884710
-0.863007 -1.008937 0.267120 -0.050238 -0.916484 0.396905
6.000606 1.862920 0.424781 0.254216 0.036130 -0.966472
-3.945172 -0.310995 1.762476 -0.548411 0.452227 0.703375
-8.045382 0.328308 -0.157397 -0.193739 -0.769441 -0.608627
0.407974 -2.432296 -1.331611 -0.970842 -0.061776 0.231622
4.286192 0.719743 1.023683 -0.262473 -0.397615 0.879210
-4.561253 0.804136 -0.969657 -0.768625 -0.051466 -0.637627
-4.098540 0.719026 1.476699 -0.688528 0.134578 0.712613
-3.674575 2.300275 -1.155907 -0.504256 0.578869 -0.640809
2.598662 -1.053267 -0.230571 0.586374 -0.810041 0.000000
-1.176096 -0.214336 1.356971 -0.002782 -0.657417 0.753522
4.356461 0.712206 -1.009827 -0.262476 -0.397616 -0.879208
-5.773201 1.012743 -0.451976 -0.046475 -0.020043 -0.998718
1.148696 2.969487 -0.730997 0.209675 0.751895 -0.625052
-4.508800 2.082701 -0.682399 -0.537265 0.583041 -0.609433
3.658084 3.221273 1.769120 -0.945395 0.285608 0.157025
-8.692612 0.796121 0.271542 -0.110594 -0.059959 0.992055
-0.962831 1.245137 -1.848717 -0.021361 0.003821 -0.999765
0.434320 -1.934493 -1.700577 -0.964985 0.033134 -0.260203
-5.363292 0.597768 -0.432025 -0.116726 -0.243171 -0.962935
3.791688 3.638975 -0.245915 0.953152 0.300333 0.036063
0.566952 -2.529260 1.122765 -0.801875 -0.039696 -0.596172
5.518992 -0.176378 -0.456252 0.446171 0.083559 -0.891039
-3.011071 -0.666341 -2.228362 0.392315 -0.181918 -0.901662
-4.533686 1.142366 -0.991811 -0.769804 0.034908 -0.637325
-1.735175 3.011992 1.214066 0.008438 0.731241 0.682067
0.442794 -2.905519 -1.466284 -0.962684 -0.236640 0.131304
-4.100063 -0.660801 1.066808 -0.809503 -0.211055 -0.547869
-3.205803 -1.763755 -1.404469 0.602116 -0.406207 0.687352
-8.666888 1.463928 0.130806 -0.070177 0.648913 0.757620
0.524918 -2.259002 1.248629 -0.655907 0.142322 -0.741303
1.345978 -1.387965 -1.753962 0.639700 -0.226450 -0.734510
4.574839 0.079235 0.683620 -0.492501 -0.680681 0.542325
-3.403022 -3.628979 1.972571 -0.444029 -0.812945 -0.376775
6.222797 -0.930132 -0.127232 0.288714 -0.921497 -0.259783
-3.374045 -1.184382 1.013366 0.027863 -0.489346 -0.871645
-4.182368 -0.397057 1.025215 -0.960626 -0.263049 -0.089463
0.079670 -0.074198 1.589132 0.046305 -0.321847 0.945659
-8.798592 1.191318 0.244611 -0.072635 0.174303 0.982009
3.044159 1.352000 -1.397535 0.241109 -0.142555 -0.959971
-3.587545 -1.566315 2.423280 -0.318849 0.198154 0.926860
0.266262 3.391875 0.447975 0.232495 0.867090 0.440568
0.862729 -3.128485 -2.137088 -0.233262 0.111456 -0.966005
1.320618 -3.449157 0.937238 -0.119180 -0.261026 -0.957946
3.772758 1.707043 1.690395 -0.535614 -0.428597 0.727614
-3.313996 -3.172467 2.767828 0.308500 0.451969 0.836990
6.012356 -0.672381 -0.284252 -0.274198 -0.458250 -0.845471
-5.468799 2.156816 0.115230 -0.150717 0.221546 0.963432
2.734078 2.567408 -0.772886 -0.015675 0.943084 -0.332184
4.431070 0.585748 -0.971108 -0.236906 -0.412810 -0.879468
6.590871 0.108648 -0.393244 0.469179 0.164752 -0.867599
4.708285 2.389547 0.624030 0.578179 0.795233 0.182519
-7.536301 0.132548 0.077493 -0.156509 -0.774696 0.612659
-3.088571 3.034992 -0.734044 -0.361371 0.634697 -0.683060
5.977206 -0.762775 0.256407 -0.278772 -0.437488 0.854921
-3.430484 -2.211713 -2.405282 0.585160 0.087389 -0.806195
-4.242872 -1.624828 -1.918602 -0.825545 0.228743 -0.515899
3.635497 0.882869 1.107511 0.308085 -0.352409 0.883681
-4.768669 0.221090 -0.367296 -0.434090 -0.620307 -0.653288
-0.904511 2.099172 1.753825 0.022095 0.223615 0.974427
-3.329351 -2.741910 -1.834393 0.939603 -0.122824 0.319470
-0.332420 3.602021 -0.267564 0.166962 0.879457 -0.445734
1.330591 -1.190853 1.897099 0.412562 -0.431749 0.802113
1.400179 -0.551439 -1.925479 0.088213 -0.078599 -0.992996
-4.166395 -0.978090 1.334694 -0.942575 -0.101309 -0.318260
-7.964570 0.969099 -0.297732 -0.068426 0.044132 -0.996680
-2.879532 -3.433539 -2.078608 0.676473 0.657793 0.331199
6.555942 -0.692889 -0.356569 0.564173 -0.183838 -0.804930
6.239097 -0.574205 -0.413118 -0.212505 -0.426259 -0.879286
2.208892 0.660745 1.871145 0.227756 0.263576 0.937366
5.648026 0.298357 0.713013 0.319542 -0.200544 0.926107
0.370504 -1.201473 0.251923 -0.246172 -0.849735 0.466207
4.071005 3.118063 -0.920208 0.854687 0.519045 -0.010116
-2.217006 -0.516319 1.601216 0.735275 -0.310163 0.602635
0.972484 -3.581856 -2.148401 -0.039614 -0.009096 -0.999174
1.526184 -3.378503 1.278955 0.525021 0.653301 -0.545482
0.926449 3.359619 0.109772 0.228621 0.973516 0.000000
-1.664998 2.216668 -1.681006 -0.062935 0.492372 -0.868106
0.823869 0.234292 -1.699416 -0.309056 -0.150010 -0.939139
3.081472 0.854345 1.419352 0.682906 -0.074853 0.726661
0.672651 -3.391223 2.037549 -0.889365 -0.111293 0.443446
-3.997603 -0.697078 0.886234 -0.715534 -0.641899 -0.275640
5.947528 1.668681 0.731350 0.451102 -0.637812 0.624261
3.509591 3.756196 0.335741 -0.969057 0.216542 0.118486
4.237161 2.809248 1.062210 0.833158 0.475681 0.282089
-0.077834 -0.680467 -0.988175 -0.093046 -0.725850 -0.681531
3.910647 3.338921 -0.284583 0.861634 0.507426 0.010262
-7.591168 1.533229 0.136420 0.004242 0.668709 0.743513
0.799395 -3.564846 -1.266822 -0.673703 -0.699288 0.239001
2.303648 0.579761 -1.829786 0.431721 0.059381 -0.900050
0.187631 0.771049 -1.787658 0.079522 -0.247341 -0.965660
-3.663709 -0.952494 2.252784 -0.299540 0.268775 0.915443
-1.344773 -1.018551 0.202457 -0.012310 -0.999924 0.000000
0.411222 -2.037724 -1.628059 -0.964985 0.033134 -0.260203
-1.204637 1.005158 1.880369 0.093103 -0.002627 0.995653
2.602014 1.363868 1.594665 0.320002 0.220341 0.921438
0.096602 3.506166 0.312568 0.232495 0.867090 0.440568
0.405708 -2.608722 1.473773 -0.965349 -0.122865 -0.230229
3.911767 1.459735 1.588729 -0.495960 -0.736290 0.460326
-0.564792 -0.326257 -1.379218 -0.180896 -0.664996 -0.724608
-0.830381 3.200705 0.977223 0.014463 0.672078 0.740339
-4.202752 -1.009869 1.637737 -0.993694 0.099811 0.051089
-7.574932 0.941663 -0.317659 -0.038033 0.045678 -0.998232
-4.382545 -0.079365 -0.598688 -0.840212 -0.488228 -0.235960
-3.227666 -2.028840 2.262310 0.808300 -0.130930 0.574028
-3.830866 1.286993 -1.564464 -0.523925 0.277534 -0.805281
2.195166 0.992928 -1.770957 0.187740 0.220047 -0.957253
-3.134681 1.758215 1.759396 -0.199644 0.360583 0.911110
-4.238519 2.948226 0.184737 -0.415365 0.649272 0.637117
-5.744776 1.321490 0.443006 -0.176914 0.259021 0.949531
0.400950 -2.508182 -1.381290 -0.970842 -0.061776 0.231622
-7.893309 1.480740 -0.153176 0.033313 0.428210 -0.903065
0.834340 -1.406262 0.049769 -0.374756 -0.927123 -0.000000
1.124283 -2.256550 1.992118 -0.064023 -0.408035 0.910719
-9.692894 1.389438 0.068540 -0.145097 0.471455 0.869872
-2.555601 0.584398 2.049476 0.078019 0.005576 0.996936
1.557051 -3.345290 -1.552546 0.750528 0.651148 0.112757
5.425351 1.825677 -0.883703 0.322588 0.097449 -0.941510
0.892873 0.706309 -1.756396 -0.040903 -0.177678 -0.983238
-0.445756 -0.028506 -1.583537 -0.011450 -0.300028 -0.953862
-0.271185 2.145047 -1.687634 0.102517 0.463637 -0.880075
-8.269938 0.291368 0.056967 -0.232524 -0.972591 0.000000
-7.477096 0.279080 0.220150 -0.077795 -0.542439 0.836486
6.415617 -1.140165 -0.086687 0.380959 -0.736576 -0.558861
-3.047894 -3.399154 -2.808732 0.443980 0.746291 -0.495915
-3.232661 -3.123554 -2.673081 0.607198 0.448082 -0.656150
2.209832 0.248178 -1.857798 0.272309 -0.048953 -0.960964
2.886270 -0.543181 1.014416 0.732657 -0.616321 0.288724
-3.396327 2.516316 1.146862 -0.358380 0.687251 0.631862
3.243248 -0.252472 0.845829 0.654865 -0.641089 0.400196
-2.418617 0.127558 -1.942990 0.529984 -0.018473 -0.847807
0.861333 2.133955 1.554446 0.227182 0.453721 0.861699
-1.801377 2.530633 -1.484223 -0.085922 0.502697 -0.860182
-0.725425 -0.857354 0.634550 -0.050239 -0.916484 0.396904
1.278896 -0.969675 1.999540 0.363481 -0.205376 0.908682
1.039118 -1.342060 -1.990078 0.199228 -0.016398 -0.979816
4.999408 -0.215145 -0.519259 -0.089196 -0.667660 -0.739104
-3.473791 0.720098 -1.930134 -0.347564 0.185236 -0.919177
1.131893 2.961625 0.777883 0.210104 0.753216 0.623316
1.491311 -3.633883 1.886301 -0.452256 -0.880852 0.139876
-5.688415 0.089739 0.080286 0.076505 -0.583508 0.808496
1.418068 -3.420950 -0.940229 0.549896 0.763896 0.337755
0.431775 -1.059420 0.543472 -0.300840 -0.831389 0.467213
1.392601 -2.023724 -1.277930 0.920488 -0.198955 0.336332
-1.195831 -0.983156 -0.285775 -0.011302 -0.918041 -0.396325
-4.224126 -1.197246 1.650689 -0.990562 0.129162 0.045881
5.278867 2.163331 0.351481 0.233332 0.963966 0.127775
-3.137863 -3.647951 2.726305 -0.013339 -0.999847 -0.011291
0.909290 3.220497 -0.442328 0.239173 0.841298 -0.484782
-4.045967 -0.492748 -1.699727 -0.824180 0.256288 -0.505019
3.499313 3.556218 -0.582404 -0.979491 0.171640 -0.105533
0.922233 -1.383966 2.057687 0.321371 0.065981 0.944652
4.919172 2.296698 -0.011555 0.414905 0.909865 0.000000
3.498458 3.573073 0.578478 -0.979491 0.171640 0.105534
4.010700 2.584152 1.805602 0.829422 0.226629 0.510587
-3.937590 -2.072934 2.412386 -0.480710 0.173731 0.859497
0.234095 -1.183846 0.025186 -0.336770 -0.941587 0.000000
1.234837 -2.903755 1.369348 0.934692 0.306141 -0.180633
-1.366785 -0.896962 0.493403 -0.011174 -0.907648 0.419583
0.453270 -1.189543 -0.327736 -0.504080 -0.733348 -0.456184
3.769026 2.895605 1.932845 0.173462 0.293074 0.940223
3.580842 4.006957 -0.126890 -0.706633 0.705763 0.050679
3.126776 2.422306 0.993571 0.023516 0.727458 0.685749
5.679253 0.263117 0.694607 0.319539 -0.200546 0.926108
-3.831198 3.190326 -0.172144 -0.415365 0.649270 -0.637119
-2.327266 1.641854 1.871776 0.052097 0.181161 0.982073
1.740651 1.790039 1.611126 0.150374 0.452373 0.879060
-1.994166 -0.850808 -0.583488 0.051492 -0.917742 -0.393825
3.592919 -0.336638 -0.018751 0.502767 -0.864422 0.000000
0.448925 -2.071630 -1.772203 -0.964985 0.033133 -0.260204
-3.657434 1.303138 -1.671736 -0.523925 0.277534 -0.805281
-6.501230 0.348523 0.317833 -0.029662 -0.491250 0.870513
-5.874171 2.109737 0.066131 -0.085312 0.253447 0.963580
-8.308811 0.945425 -0.275147 -0.068426 0.044132 -0.996680
2.608804 -0.337475 1.609029 0.587411 -0.352496 0.728488
0.346727 0.757057 1.805006 0.088438 -0.221151 0.971221
-1.798118 3.174226 1.040913 0.008438 0.731241 0.682067
1.831176 -1.260029 1.473884 0.567041 -0.772203 0.286649
-3.873794 -0.588135 -0.241345 -0.450271 -0.892805 -0.012420
3.945748 3.264388 1.151873 0.867768 0.478689 0.133550
-0.359825 3.325555 0.742630 0.131151 0.761716 0.634499
0.273366 3.167038 0.783147 0.173796 0.756996 0.629882
2.136435 0.112682 1.923914 0.191725 0.016127 0.981316
3.226701 2.580558 -0.784398 -0.800673 0.555035 -0.225518
5.846226 1.520992 -0.127359 0.782740 0.619898 -0.055172
1.496771 -3.645016 1.397582 -0.000000 -1.000000 0.000000
1.994408 0.285620 -1.913042 0.080426 0.103023 -0.991422
3.741066 3.653735 -1.206346 0.839929 0.426848 -0.335141
-7.505365 0.158998 0.118842 -0.156509 -0.774696 0.612659
-0.308970 0.849968 1.855184 0.013109 -0.234651 0.971991
6.468379 -0.098561 0.536188 0.263540 0.236322 0.935253
4.175359 2.960381 0.668204 0.806507 0.589201 0.048871
3.406762 3.054313 -0.539710 -0.979491 0.171640 -0.105534
3.558957 3.307636 1.431317 -0.942459 0.152411 0.297560
0.336594 2.516512 1.429001 0.236184 0.695065 0.679045
-0.196094 3.386270 0.635899 0.131151 0.761716 0.634499
1.666544 -3.675547 1.961848 -0.215062 -0.951519 -0.219907
-2.309605 0.057605 -1.873320 0.529984 -0.018473 -0.847807
-10.172925 0.846629 -0.023717 -0.192704 -0.459358 -0.867096
2.407408 0.380503 -1.793162 0.431721 0.059381 -0.900050
-1.604171 -0.443113 1.205014 0.109195 -0.670499 0.733831
6.353038 1.905012 0.587523 0.529276 -0.833576 0.158167
5.354981 0.543070 0.912680 0.585610 -0.307010 0.750204
1.240609 -3.316367 -0.917188 0.384303 0.491865 0.781268
-4.161092 -1.493026 1.394632 -0.796950 -0.077535 -0.599049
4.795410 0.660199 1.121979 -0.050020 -0.092500 0.994456
6.040651 1.872009 0.435654 0.254216 0.036130 -0.966472
-3.829572 1.187315 -1.588662 -0.610905 0.148586 -0.777636
0.614703 -2.914493 2.025722 -0.649185 -0.049231 0.759036
-5.642556 1.506479 -0.372304 -0.334423 0.591878 -0.733377
-4.595491 1.491547 -0.922855 -0.603107 0.339729 -0.721697
-0.744100 3.104513 -1.041970 0.106737 0.686031 -0.719700
3.022679 -0.702308 -0.102180 0.580062 -0.814572 0.000000
1.081604 -0.571550 -1.863710 -0.232732 0.284979 -0.929851
2.251739 -1.255656 -0.050662 0.471830 -0.881690 0.000000
-5.160985 1.925897 -0.275457 -0.328318 0.481066 -0.812885
0.820354 -0.672728 -1.791343 -0.467078 0.109425 -0.877419
0.431075 -1.479335 1.694388 -0.991789 -0.040929 0.121162
6.176274 0.646748 0.483135 0.751522 -0.109086 0.650626
3.836762 3.477566 0.962052 0.956830 0.273258 0.099030
1.253890 -3.421896 -2.119785 0.275811 0.250057 -0.928116
1.729976 2.885052 -0.599278 0.325026 0.813975 -0.481459
2.322647 2.813601 0.412591 0.248908 0.900465 0.356663
3.435854 3.203434 -0.567184 -0.979491 0.171640 -0.105534
1.911035 0.343725 1.945191 0.080425 0.103024 0.991422
-4.265446 2.030825 -0.929404 -0.572453 0.374757 -0.729284
-0.992131 1.303318 -1.847868 -0.021361 0.003821 -0.999765
-2.695054 3.361609 0.629894 -0.249850 0.715052 0.652898
-3.904594 -0.666440 -0.658924 -0.441787 -0.805869 0.394207
3.413021 3.408452 0.104252 -0.978389 0.206775 0.000000
3.278232 -0.345264 -0.603330 0.587118 -0.734332 -0.340659
-2.423525 -0.386882 1.919808 0.735275 -0.310163 0.602635
1.098397 -2.223487 -1.999140 -0.057771 -0.158876 -0.985607
-4.664330 2.339663 0.347765 -0.481292 0.483387 0.731229
-1.364251 0.812929 1.853804 0.092391 -0.253547 0.962901
1.499122 2.241349 1.384270 0.175860 0.610985 0.771862
5.426322 -0.295144 0.461686 0.041153 -0.470954 0.881197
-0.586636 3.704630 0.175117 0.212347 0.977194 -0.000000
0.410433 1.624427 -1.793524 0.071540 0.279808 -0.957387
4.156069 2.874536 1.247883 0.817591 0.468601 0.334601
5.970885 1.243852 -0.755608 0.705296 -0.007911 -0.708868
-3.350449 -0.818867 0.146224 -0.238141 -0.955859 0.172109
5.900967 0.170732 0.625656 0.133087 -0.194350 0.971862
1.111176 -0.352589 1.844114 -0.476320 0.097960 0.873798
0.946952 2.864860 -0.924532 0.209675 0.751895 -0.625052
2.069577 1.865294 -1.482969 0.271185 0.416833 -0.867588
-7.167663 1.654146 0.100378 -0.046472 0.268355 0.962198
-0.899939 0.087255 1.630678 -0.070552 -0.327834 0.942097
-2.928427 -3.650445 2.807649 0.815500 -0.428152 -0.389417
4.112559 3.047281 -0.665885 0.807015 0.581406 0.103410
3.989987 2.870841 1.638622 0.840572 0.411009 0.352859
-2.527256 -0.979377 -0.285997 -0.006702 -0.949602 -0.313387
0.899833 -2.893566 -2.052330 0.056073 0.392621 -0.917989
0.783999 3.374788 -0.228241 0.204965 0.872783 -0.442989
-3.092016 -3.628595 2.575720 0.653108 -0.515544 -0.554675
2.397812 1.115849 -1.691416 0.294768 0.201046 -0.934180
0.590485 0.101069 -1.620738 0.010541 -0.379355 -0.925191
1.960838 2.631884 -0.858898 0.220293 0.750536 -0.623030
4.345831 0.580761 0.977120 -0.259317 -0.453684 0.852599
6.678161 -0.746579 0.274605 0.807730 -0.137025 0.573407
-1.206671 0.248271 -1.621394 0.275169 -0.495041 -0.824146
0.966047 2.985349 -0.773186 0.209675 0.751895 -0.625052
-5.415303 0.898774 0.533979 -0.233852 -0.036703 0.971579
-3.877591 2.749429 -0.524680 -0.417376 0.587200 -0.693537
4.305824 1.110761 -1.455173 -0.453856 -0.770028 -0.448410
-1.483182 -0.869046 -0.519487 0.016841 -0.912689 -0.408308
-0.082080 3.205686 0.829124 0.131151 0.761716 0.634499
-1.717390 3.670779 -0.423394 -0.002336 0.838466 -0.544948
5.817817 2.141631 -0.714220 -0.295080 0.942221 0.158582
5.913048 -0.550372 -0.325617 -0.091720 -0.303468 -0.948417
5.561168 1.077994 0.873311 0.345806 -0.194131 0.918004
-3.401590 2.421733 1.246751 -0.358380 0.687251 0.631862
-3.653108 -1.393115 2.363697 -0.318849 0.198154 0.926860
-2.541717 0.580178 -2.003573 -0.068787 0.101997 -0.992404
-4.150072 -0.930482 1.271197 -0.942575 -0.101309 -0.318260
-1.695023 -0.776924 -0.726210 0.050661 -0.846439 -0.530070
-0.558788 2.384829 1.608246 0.073463 0.508041 0.858195
2.906967 0.573339 1.535590 0.627033 -0.100327 0.772505
-1.187688 0.303044 -1.647957 0.275169 -0.495041 -0.824146
-4.177934 -0.705854 -1.495068 -0.993694 0.099811 -0.051087
2.853159 2.519171 -0.868772 0.023517 0.727460 -0.685747
1.249358 -3.462426 0.949719 -0.119183 -0.261026 -0.957946
1.962548 -1.258618 1.205973 0.435389 -0.883012 0.175292
5.320728 2.128650 -0.584082 0.201892 0.979011 -0.027887
4.576110 2.097453 1.314538 0.725512 0.352636 0.590999
1.160822 -1.162763 -1.968744 0.241519 -0.076615 -0.967367
1.206148 1.060790 -1.855994 0.019044 -0.071846 -0.997234
-3.413656 2.667653 0.972429 -0.358379 0.687252 0.631862
-1.646034 -0.992255 0.282222 0.016842 -0.912689 0.408309
-1.600426 -0.060929 1.556228 0.058297 -0.765055 0.641321
1.319721 -0.713831 1.978993 0.007315 0.123344 0.992337
2.630822 -0.614010 1.386710 0.659074 -0.636316 0.400904
4.607935 0.910801 -1.179875 -0.043626 -0.410825 -0.910670
-3.897789 -3.151249 -1.637326 -0.323334 -0.354247 0.877476
-5.300394 1.132223 0.570456 -0.233851 -0.036704 0.971579
-3.472317 -3.502281 1.780866 -0.444029 -0.812945 -0.376775
-3.627439 -3.645016 2.117293 0.000000 -1.000000 -0.000000
-3.131688 -3.305170 -2.746957 0.557422 0.565037 -0.608288
3.423192 3.184380 0.512077 -0.979491 0.171640 0.105535
-2.613231 -0.968675 1.853024 0.922035 -0.335085 0.193831
3.398338 2.549620 1.229282 -0.653401 0.471807 0.592001
1.698871 0.166725 1.966330 -0.012928 0.000904 0.999916
-3.705330 2.582216 -0.868500 -0.358378 0.687252 -0.631862
0.748099 -3.371071 2.101464 -0.560591 -0.145435 0.815222
-3.147181 0.776357 -2.015567 -0.254966 0.249640 -0.934169
3.537990 -0.294326 0.339513 0.463905 -0.797606 0.385509
4.447919 0.537055 -0.952790 -0.236906 -0.412810 -0.879468
-0.478816 0.563747 -1.756952 0.013109 -0.234652 -0.971991
0.598232 -1.947747 -1.943627 -0.717558 0.056731 -0.694185
-3.433479 3.294868 -0.308207 -0.392111 0.746637 -0.537385
0.217836 -1.178030 -0.062439 -0.336770 -0.941587 -0.000000
-2.398414 -0.572608 -1.751484 0.718472 -0.330631 -0.611949
-2.942476 -3.349958 -2.239838 0.626427 0.779407 0.010718
-2.851660 -0.962149 -2.082386 0.541359 -0.250561 -0.802589
-5.579353 0.168184 0.141865 -0.067711 -0.562896 0.823750
-4.302814 -1.899605 -1.748740 -0.992617 0.120731 -0.011665
-3.178700 -3.186645 -2.679941 0.557422 0.565037 -0.608288
-7.371085 1.369511 0.218078 0.033313 0.428210 0.903065
-0.418139 1.108114 -1.857778 0.039123 0.000417 -0.999234
5.873687 -0.146536 -0.514605 0.019822 -0.283707 -0.958706
-0.113831 -1.061490 0.294972 -0.147537 -0.906450 0.395704
-2.278057 -0.109393 1.882832 0.534434 0.004452 0.845198
3.035418 -0.456083 -0.790440 0.732657 -0.616321 -0.288724
-9.486531 1.132845 0.186077 -0.108182 0.014484 0.994026
0.479284 -1.305846 -1.195849 -0.997237 0.063128 -0.039157
-4.187764 -1.848844 2.137535 -0.825542 0.228745 0.515904
-4.473059 1.317100 -1.054809 -0.615514 0.145720 -0.774537
-0.549845 2.929935 -1.178366 0.123053 0.687858 -0.715339
-2.408306 -0.825852 0.984517 0.250127 -0.960690 0.120465
0.401000 -0.927845 -1.162477 -0.961549 -0.221829 0.161911
1.266498 -1.572122 0.642166 -0.184152 -0.919921 -0.346169
5.913774 1.480015 0.699661 0.953076 0.162118 0.255663
-3.796128 -0.106110 1.828395 -0.772268 0.149054 0.617563
0.690969 -2.453232 1.987304 -0.186309 -0.081687 0.979090
5.217099 0.959078 1.025390 0.294612 0.116584 0.948479
-0.301160 -1.055877 -0.197842 -0.160650 -0.987011 -0.000000
0.038899 0.494175 1.762508 0.046417 -0.241150 0.969377
-0.988154 -0.018194 1.583582 -0.124034 -0.606371 0.785449
3.975626 3.231501 -0.428959 0.861634 0.507426 0.010261
-1.182077 -0.384711 1.208304 -0.002782 -0.657417 0.753522
4.948349 1.839928 1.110464 0.516301 0.177698 0.837769
3.764943 3.724645 -0.252499 0.953152 0.300333 0.036063
5.305872 1.119480 0.987962 0.234106 0.075988 0.969237
-0.422715 1.027665 1.889415 0.039123 0.000417 0.999234
0.342161 0.330828 -1.673226 0.046367 -0.207406 -0.977155
3.320745 2.536639 1.153987 -0.653401 0.471807 0.592001
-2.914099 -3.649144 -1.982571 -0.012934 -0.999884 -0.008019
-3.991770 0.263131 -1.514981 -0.722813 -0.197169 -0.662318
3.463289 3.572245 -0.257860 -0.971589 0.205337 -0.117695
-0.526496 3.665155 0.247120 0.166962 0.879457 0.445734
0.271997 -0.375404 1.403423 0.019933 -0.576491 0.816860
5.334615 0.410737 0.862355 0.460128 -0.441050 0.770556
2.882894 -0.443224 -1.126690 0.732391 -0.499689 -0.462509
-3.065709 -1.034709 -1.000721 0.145170 -0.928921 0.340633
-3.528678 -3.564816 2.679217 -0.351177 -0.611485 0.709056
3.119642 0.698213 1.367396 0.682906 -0.074853 0.726661
1.389754 -1.784291 -1.593650 0.639700 -0.226447 -0.734511
4.726774 2.095803 -1.161317 0.516300 0.177698 -0.837770
-8.672294 0.635392 -0.219157 -0.118626 -0.173839 -0.977603
5.042832 2.215482 0.629316 0.310449 0.949901 0.036196
-3.396137 2.240753 1.443521 -0.232606 0.418839 0.877763
4.246293 2.866747 -0.573075 0.772042 0.631603 0.070910
-5.952724 1.227728 -0.398414 -0.176914 0.259021 -0.949531
1.228775 -3.570583 -0.942369 0.070882 -0.133795 0.988471
-3.380107 -0.938987 0.842956 -0.180892 -0.870761 -0.457224
6.602140 -0.504391 0.435322 0.639666 -0.346728 0.686008
-1.274490 1.218103 -1.850384 0.046654 -0.000006 -0.998911
-7.630586 0.940857 0.349129 -0.038224 0.123221 0.991643
-0.896806 3.730719 0.246703 0.123627 0.885426 0.448038
3.190327 2.080122 1.357577 -0.117527 0.723981 0.679734
-2.799621 1.210546 -1.925784 0.196330 0.190387 -0.961877
-1.102748 -0.428094 -1.171762 -0.144843 -0.628400 -0.764286
-3.889260 -3.000849 -1.573465 -0.323334 -0.354247 0.877476
0.572186 -2.457376 1.909199 -0.657740 -0.501924 0.561650
1.981226 0.243248 1.949938 0.080425 0.103024 0.991422
-4.024364 -3.287968 1.788973 -0.670748 -0.323072 -0.667624
-3.511959 -2.908715 2.647033 -0.048521 0.414195 0.908894
-3.003048 2.796899 -1.037425 -0.373802 0.677240 -0.633733
-3.205653 3.275865 -0.448284 -0.361370 0.634697 -0.683060
-2.695487 -1.003641 1.996785 0.505385 -0.306792 0.806514
-2.875495 -0.900644 -0.373916 -0.177768 -0.875561 -0.449212
-3.418741 -0.216860 2.160761 -0.368075 0.183943 0.911420
-0.395988 -0.957115 0.445893 -0.050239 -0.916484 0.396904
-2.052093 -0.319234 -1.547137 0.604240 -0.449251 -0.658079
-4.261775 -2.646417 1.829948 -0.930575 -0.114967 -0.347583
-4.210073 -0.318087 -0.502383 -0.713011 -0.699013 -0.054742
-2.578773 -0.939333 0.437656 -0.006701 -0.949601 0.313389
0.410305 -1.686822 -1.607952 -0.988670 0.050469 -0.141368
-1.991675 2.249468 1.665697 -0.066247 0.512747 0.855980
0.504141 -2.590412 -1.829363 -0.718621 -0.062234 -0.692612
-2.454654 0.954568 1.995862 0.035115 0.170226 0.984779
1.077509 -2.634447 1.144380 0.521643 -0.512104 -0.682377
-2.083228 -0.925631 -0.420769 0.051492 -0.917742 -0.393825
0.524129 2.699845 -1.203599 0.142173 0.689750 -0.709952
6.499495 2.370517 0.731733 -0.338850 0.877218 -0.340103
3.270122 2.556707 -0.961122 -0.806753 0.512348 -0.294362
0.582958 3.004996 -0.861044 0.173796 0.756997 -0.629881
1.868047 -1.372759 0.843812 0.485855 -0.863900 0.132746
5.946650 1.438436 0.398344 0.903920 0.427551 -0.011386
4.041964 0.374632 -0.770920 -0.244443 -0.388124 -0.888598
2.498888 2.668644 0.669372 0.242622 0.937776 0.248415
0.712476 0.273083 -1.670605 -0.040903 -0.177678 -0.983238
1.840309 1.239161 -1.773106 0.164283 0.236476 -0.957648
5.925239 1.959668 -0.824655 0.076646 -0.006399 -0.997038
-3.325440 -2.171860 1.572271 0.602120 -0.406207 -0.687348
1.337486 -1.945336 -1.027085 0.927861 -0.265506 0.261878
2.239772 1.906935 -1.435040 0.099202 0.377860 -0.920533
2.692405 0.322086 1.670988 0.538388 -0.067776 0.839967
4.741160 2.343988 0.736640 0.563718 0.816528 0.124513
-1.356319 3.816303 0.204361 0.123627 0.885426 0.448038
-4.821952 2.389318 0.211194 -0.481291 0.483383 0.731232
-0.836577 2.135579 1.743929 0.022095 0.223615 0.974427
1.798208 2.000186 -1.461712 0.150376 0.452373 -0.879060
0.487138 -1.209274 0.312460 -0.300840 -0.831389 0.467213
1.346608 -1.922618 -1.020361 0.841383 -0.502663 0.198508
1.231814 -3.195926 1.036252 0.670038 0.369246 -0.643977
0.842776 -3.645016 -1.507771 0.000000 -1.000000 0.000000
-6.617899 0.261352 0.259539 -0.034659 -0.568709 0.821808
2.261464 0.404101 -1.851110 0.272309 -0.048953 -0.960964
4.439328 1.847751 -1.618767 0.782313 0.425897 -0.454532
-6.754663 0.846825 -0.374749 -0.073200 0.122946 -0.989710
0.994048 -0.986612 -1.978201 -0.015811 0.105741 -0.994268
4.841537 0.604335 1.111305 -0.182747 -0.410116 0.893537
-0.408101 1.578245 -1.857404 0.010125 -0.021504 -0.999718
3.547477 0.099282 0.906797 0.616809 -0.304462 0.725844
1.057810 -0.709825 1.936747 -0.283376 0.307546 0.908358
3.080979 2.713088 -0.145558 0.075587 0.967488 -0.241358
3.815622 2.718465 2.039436 0.102354 0.448900 0.887701
1.527509 3.078969 -0.382932 0.239174 0.841297 -0.484784
6.174473 0.177625 0.581224 0.263791 -0.031888 0.964052
0.505516 -2.802758 -1.192184 -0.801875 -0.039695 0.596172
3.765439 -0.267547 0.193774 0.183159 -0.868365 0.460863
-3.994634 -0.902416 1.004109 -0.809503 -0.211055 -0.547869
5.599667 -0.661643 -0.124744 -0.426883 -0.830242 -0.358426
1.052046 -1.743358 2.039384 0.511589 0.091418 0.854353
-4.199996 3.005830 -0.119724 -0.415365 0.649270 -0.637119
0.432737 -1.012952 -1.090604 -0.961549 -0.221829 0.161911
-3.038020 -3.319968 -2.654031 0.789808 0.540655 -0.289647
0.722216 -1.453483 0.768795 -0.558226 -0.421457 -0.714673
-8.030014 0.779079 -0.296506 -0.078040 -0.101611 -0.991758
-5.160085 0.635299 -0.473152 -0.164588 -0.329503 -0.929698
1.594671 -1.520794 1.468235 0.733635 -0.607042 0.305419
-8.221108 1.412284 -0.169698 -0.040615 0.386752 -0.921289
-5.098073 0.142813 0.177802 -0.337893 -0.609347 0.717303
-3.923294 0.036514 -1.603526 -0.772269 0.149053 -0.617563
-0.840667 0.693039 1.805997 -0.013309 -0.260657 0.965340
3.374421 0.491688 1.166958 0.640683 -0.070847 0.764530
-0.680481 -0.266404 -1.405266 -0.180896 -0.664998 -0.724606
-2.390520 0.573492 2.034273 0.113733 -0.018150 0.993345
-2.726208 -1.002878 -1.181420 0.552895 -0.815188 0.172555
-7.506580 0.452155 0.301829 -0.029838 -0.208329 0.977604
3.973536 3.252405 -0.734227 0.807012 0.581410 0.103413
1.993210 2.353869 -1.138671 0.178341 0.627559 -0.757868
-2.700035 2.513928 -1.421034 -0.066246 0.512748 -0.855980
-2.756861 -0.336039 -2.109637 0.477602 -0.081025 -0.874832
-2.458278 -0.664594 1.808594 0.746141 -0.320127 0.583774
0.731578 -3.530819 -1.358428 -0.673703 -0.699288 0.239001
1.503226 -3.275742 -1.655407 0.830810 0.555421 0.035517
1.479287 -1.064573 1.888590 0.412562 -0.431749 0.802113
-3.040233 -1.015104 0.986453 0.115471 -0.954436 -0.275168
-2.383151 3.750342 -0.225697 -0.136760 0.830100 -0.540584
0.624002 -3.367719 -1.194130 -0.913379 -0.246460 0.324031
-3.780162 1.295245 1.590801 -0.519567 0.201496 0.830331
-3.601139 -1.849064 2.455660 0.121046 0.097735 0.987824
-5.468700 1.013571 -0.494039 -0.233851 -0.036704 -0.971579
-1.312855 0.738639 -1.797886 0.092393 -0.253548 -0.962900
3.520696 1.191029 1.248266 0.317361 -0.292062 0.902209
-5.209562 1.121460 0.591912 -0.233852 -0.036703 0.971579
-4.345893 0.838441 1.263455 -0.768624 -0.051466 0.637627
0.388908 1.534920 -1.806835 0.182571 0.081665 -0.979795
-3.331647 -0.847680 0.585726 -0.276988 -0.941650 -0.191238
4.425079 -0.340492 0.088282 -0.281218 -0.959644 -0.000000
-3.144228 -1.936132 -1.946970 0.968019 -0.246236 -0.048028
-1.120161 -0.778985 0.738240 -0.022117 -0.838086 0.545090
-2.915617 -3.608515 2.129077 -0.113901 -0.710992 -0.693914
-3.054698 3.622432 0.146232 -0.279576 0.791342 0.543705
-4.214767 -1.545484 1.514786 -0.935867 0.005104 -0.352316
-3.977913 0.302451 -1.541810 -0.722813 -0.197169 -0.662318
-0.238943 -0.647476 -1.030623 -0.111954 -0.846946 -0.519758
-0.060890 1.075095 1.875229 0.039123 0.000417 0.999234
-3.684074 -2.879936 2.662767 0.210076 0.401267 0.891545
3.971696 1.648650 1.802330 -0.534601 -0.430205 0.727410
-0.382586 1.517516 -1.856215 0.039123 0.000417 -0.999234
-1.030013 3.405629 0.753734 0.038211 0.770963 0.635732
2.100384 1.878112 1.498606 0.271185 0.416833 0.867588
1.981248 2.565734 0.962795 0.220292 0.750537 0.623030
-3.615137 -1.549673 -1.145771 0.095215 -0.323892 0.941291
3.131008 0.229405 -1.291940 0.639093 -0.316098 -0.701172
-2.953445 2.044545 -1.616201 -0.227256 0.407644 -0.884410
-8.309012 1.222754 0.265040 -0.038031 0.178296 0.983242
-5.749127 2.221484 0.023647 -0.441066 0.897475 0.000000
-4.237278 -0.288063 -0.249495 -0.676340 -0.709630 0.197456
-6.532412 0.253722 0.257864 -0.034659 -0.568709 0.821808
-3.607669 0.212467 1.981069 -0.764163 0.182215 0.618750
0.806528 2.196505 -1.506746 0.119910 0.462704 -0.878366
0.327457 2.758882 -1.185626 0.142173 0.689750 -0.709952
-2.542026 3.727952 0.251145 -0.131981 0.831072 0.540278
2.013220 -1.302172 -0.794362 0.445660 -0.885449 -0.131785
0.507200 2.654281 1.245381 0.113029 0.623966 0.773234
0.925694 1.178805 -1.781881 -0.067511 -0.006636 -0.997697
-9.740160 1.020806 0.160201 -0.112628 0.053405 0.992201
-4.112590 0.330603 -1.403212 -0.722813 -0.197169 -0.662318
-2.893292 -1.201984 -1.416237 0.583780 -0.732942 0.349279
2.103603 -1.334831 0.275426 0.471046 -0.882108 0.000000
-5.516882 2.079891 -0.093973 -0.150718 0.221545 -0.963432
-4.470556 1.647980 0.966833 -0.580602 0.323479 0.747170
-7.646690 0.726516 0.354830 -0.088920 -0.100406 0.990965
-3.421904 -2.524802 -1.598563 0.689607 -0.183417 0.700571
2.169859 1.966889 1.460087 -0.034615 0.339415 0.939999
-3.084004 -1.559215 -1.443894 0.885874 -0.422984 0.190557
0.020558 0.473956 1.758357 0.046417 -0.241150 0.969377
6.205100 2.108628 0.833760 0.097925 0.003564 0.995187
1.164994 -0.984036 2.020747 0.103947 0.195820 0.975115
6.877453 -0.176394 0.306214 0.728384 -0.365822 0.579337
0.671565 2.841192 1.064881 0.173796 0.756996 0.629882
-3.748569 2.952421 0.474431 -0.394866 0.606915 0.689735
0.694306 2.179755 -1.533332 0.142122 0.461303 -0.875786
3.284100 -0.142379 -0.890350 0.660586 -0.564364 -0.495094
-3.711224 0.389701 -1.839138 -0.608544 0.175478 -0.773875
-4.308206 -1.950003 1.854946 -0.993668 0.111544 0.013495
-0.138695 0.877282 -1.828057 0.013109 -0.234652 -0.971991
3.579403 3.209218 -1.507309 -0.823849 -0.059332 -0.563695
2.750317 2.787789 0.072152 0.217634 0.976031 0.000000
-2.464713 2.741187 1.251780 -0.179795 0.782070 0.596690
3.716151 3.873226 0.707242 0.952454 0.299723 0.054754
-2.990641 2.910846 -0.922974 -0.373802 0.677240 -0.633733
3.566808 3.654848 1.151666 -0.968472 0.242210 0.058270
-6.768152 1.415912 -0.191838 -0.095483 0.473863 -0.875407
-2.991195 2.537427 1.353683 -0.358379 0.687252 0.631862
-4.156017 -2.891120 1.747225 -0.726567 -0.296522 -0.619819
-3.616975 -3.645016 2.205330 0.000000 -1.000000 -0.000000
-5.285361 1.661602 -0.409993 -0.334421 0.591875 -0.733380
-3.010094 3.153587 0.696790 -0.361371 0.634697 0.683060
-7.013792 1.315024 0.251081 -0.095482 0.473863 0.875407
-5.904399 1.197831 -0.415573 -0.176914 0.259021 -0.949531
-3.666259 2.462188 -1.016189 -0.504256 0.578869 -0.640809
5.255724 1.965360 0.969157 0.260679 0.106344 0.959551
-0.793831 3.064657 1.100013 0.014463 0.672078 0.740339
-3.392154 1.414908 1.803988 -0.249963 0.260181 0.932644
-6.517420 1.325001 0.299821 -0.095482 0.473863 0.875407
-0.198709 0.651929 1.805888 0.013109 -0.234651 0.971991
5.143566 -0.426751 0.278587 -0.369664 -0.797041 0.477571
1.249074 0.297988 1.854815 -0.382769 0.025072 0.923504
-0.929732 2.491812 1.576667 0.073463 0.508041 0.858195
-2.541780 -0.943031 1.532516 0.947378 -0.271827 0.169074
3.616091 2.890001 1.821224 -0.941526 0.134678 0.308853
-4.401091 0.474699 1.144416 -0.753298 -0.198189 0.627107
-7.495697 1.402019 -0.175836 0.033313 0.428210 -0.903065
0.226641 -0.154791 -1.512731 -0.027709 -0.508877 -0.860393
-3.171586 -2.980617 -2.110238 0.884084 0.433311 0.175033
-3.951284 -3.463770 -1.959494 -0.601003 -0.797187 0.057334
-2.406986 2.194382 1.666552 -0.066245 0.512747 0.855980
-0.672367 2.439286 -1.554305 0.073464 0.508041 -0.858194
-2.051097 -0.475598 -1.439478 0.604240 -0.449251 -0.658079
5.519868 1.346924 0.925560 0.145895 0.103800 0.983839
1.469454 -1.700761 -0.932568 0.659089 -0.752065 0.000539
5.256849 -0.328926 0.462808 -0.075513 -0.717911 0.692027
5.031862 0.926228 1.082386 0.234702 0.076386 0.969061
1.046111 2.121598 -1.513498 0.119910 0.462704 -0.878366
0.981001 -2.243964 1.046872 -0.347926 -0.211482 -0.913358
-0.794954 3.105981 -1.048113 0.106737 0.686031 -0.719700
2.636227 -0.320742 1.595013 0.587411 -0.352496 0.728488
4.300568 1.888953 1.853883 0.800999 0.440162 0.405780
-2.520178 3.645323 -0.352295 -0.136760 0.830100 -0.540584
-0.926836 0.958448 -1.845749 -0.014351 -0.229092 -0.973299
0.378801 -2.358053 1.600820 -0.947213 0.067726 0.313369
1.287273 -3.645016 -1.678817 0.000000 -1.000000 0.000000
-3.105919 -3.639128 2.054634 -0.384672 -0.763111 -0.519315
-6.708726 1.075508 -0.336643 -0.079396 0.269668 -0.959675
3.652029 3.995922 0.167015 0.796220 0.572470 -0.195735
6.069729 2.101226 -0.506684 -0.053579 0.723075 0.688688
1.707438 -0.923858 1.843678 0.438393 -0.414273 0.797614
-6.344670 0.038139 0.094908 0.002498 -0.675348 0.737495
-4.085480 2.058501 1.079461 -0.524038 0.391194 0.756539
0.982960 -1.939044 2.054326 -0.171368 -0.052693 0.983797
1.134924 0.993191 1.883908 0.019041 -0.071845 0.997234
2.481895 1.077343 -1.673172 0.294768 0.201046 -0.934180
3.829260 3.444077 -1.252344 0.839929 0.426848 -0.335141
4.366886 0.192390 -0.699882 -0.180654 -0.675652 -0.714744
3.996879 3.196217 0.631911 0.807014 0.581408 -0.103409
0.400987 -2.355309 1.412300 -0.965166 0.123760 -0.230516
4.304515 1.281596 1.781963 -0.580069 -0.692227 0.429350
3.616643 3.602925 1.462777 -0.942459 0.152410 0.297560
4.221807 2.688090 -1.284054 0.828577 0.418068 -0.372398
-0.628259 0.300969 1.725392 -0.070552 -0.327834 0.942097
1.820438 1.257247 -1.772048 0.164283 0.236476 -0.957648
-6.804377 1.498293 0.183686 -0.083972 0.398773 0.913197
5.959320 1.514575 0.523008 0.917818 -0.269631 -0.291393
-2.153565 3.459350 0.685221 -0.131082 0.755763 0.641592
-3.632232 2.529430 -0.967372 -0.358378 0.687252 -0.631862
1.074809 -2.880016 -2.044126 -0.077257 0.228740 -0.970417
-3.589031 -1.840310 2.453310 0.121046 0.097735 0.987824
3.991440 2.957373 -1.500419 0.837245 0.413019 -0.358378
-3.957770 -3.104743 2.595021 -0.604686 0.116920 0.787835
1.926987 2.765275 -0.710177 0.220293 0.750537 -0.623029
-7.159830 1.454627 -0.138636 -0.077764 0.400486 -0.912997
-0.005653 2.997949 1.050777 0.123053 0.687858 0.715339
0.741135 -1.763179 0.947949 -0.591139 -0.604768 -0.533676
-0.127812 -0.017715 -1.587090 0.046307 -0.321846 -0.945659
1.464345 2.786811 -0.845296 0.208477 0.753635 -0.623355
-4.014696 2.923205 -0.307430 -0.366299 0.549368 -0.751012
3.146783 -0.529597 -0.403092 0.591040 -0.754457 -0.285422
4.527643 1.488635 -1.841449 0.645434 0.500029 -0.577396
3.840946 3.502920 -0.414742 0.953152 0.300333 0.036063
-0.314218 0.502231 -1.739882 0.013109 -0.234651 -0.971991
5.725293 1.427850 0.867338 0.214520 0.159617 0.963589
3.926208 0.321149 0.779331 0.319078 -0.350429 0.880562
2.492511 2.089534 1.314828 0.095829 0.639693 0.762633
4.604428 0.142195 -0.758089 -0.492501 -0.680681 -0.542324
6.031280 2.002724 0.447007 0.122964 0.182451 -0.975496
6.055791 -0.806936 0.259434 -0.278772 -0.437488 0.854921
2.400229 -1.175321 -0.290600 0.461062 -0.861568 -0.212421
-4.093407 -1.621603 -1.318570 -0.802290 -0.116466 0.585463
-1.984441 3.596653 0.547038 0.045300 0.805732 0.590545
1.738355 -1.242897 1.592568 0.680174 -0.502503 0.533717
-2.226488 1.943194 -1.781574 0.038077 0.222906 -0.974096
-4.202516 -0.989257 -1.436955 -0.940773 -0.049432 0.335414
-0.969340 1.572751 -1.847326 -0.021362 0.003820 -0.999765
3.427223 2.980237 0.973275 -0.982272 0.144708 0.119167
2.524854 1.438776 -1.572125 0.320004 0.220339 -0.921438
3.639721 1.929700 1.658908 -0.757860 -0.068225 0.648840
-1.412172 3.454309 0.717668 0.038210 0.770962 0.635733
1.470687 -3.647801 1.100484 -0.587133 -0.794330 -0.155932
-6.387331 0.889721 -0.396589 -0.073200 0.122946 -0.989710
-2.318709 -0.501854 -1.696132 0.718472 -0.330631 -0.611949
0.296232 1.188482 1.849422 0.144554 -0.046961 0.988382
-4.376064 1.154061 1.193989 -0.615515 0.145720 0.774537
1.615254 -1.482633 0.296151 0.122179 -0.982261 -0.142251
-3.234577 -1.139243 -2.299902 0.550808 0.022137 -0.834338
-4.586288 0.462119 -0.834399 -0.662306 -0.479749 -0.575493
-2.144950 3.530104 0.603636 -0.131081 0.755764 0.641590
-3.911651 -0.144129 -1.661684 -0.772269 0.149052 -0.617563
-2.918779 -1.353355 1.794372 0.906669 -0.402846 0.125170
-0.267144 3.295170 -0.735473 0.147410 0.760087 -0.632881
3.228302 2.263102 -1.234827 -0.565992 0.223881 -0.793429
-1.067106 1.959515 1.789561 0.022095 0.223615 0.974427
-1.700175 0.753474 -1.898105 0.432504 -0.209642 -0.876921
-4.213561 -2.984957 -2.022682 -0.967103 -0.241029 -0.081338
6.930134 -0.234689 0.091557 0.826560 -0.538076 0.165143
0.484400 -1.056268 -0.898118 -0.840970 -0.399249 0.365198
-3.609989 -1.388977 2.377646 -0.318849 0.198154 0.926860
-3.871905 0.807181 -1.628369 -0.610805 0.149850 -0.777472
-4.216105 -2.808541 2.253614 -0.914290 -0.154745 0.374337
1.245443 -2.188451 1.924682 0.752910 -0.079634 0.653288
0.722415 -2.994571 2.091251 -0.341367 0.180730 0.922391
2.930490 -0.274785 -1.248098 0.800196 -0.502058 -0.328060
2.465054 2.733556 0.515300 0.248908 0.900465 0.356663
-5.431047 2.014545 -0.132762 -0.222409 0.372956 -0.900799
-0.585766 -0.712579 0.871874 -0.048203 -0.833947 0.549736
-0.225959 -0.015228 1.622442 0.004724 -0.306259 0.951937
-3.876076 0.756499 1.666284 -0.610806 0.149852 0.777471
0.517322 0.948772 -1.774273 0.144552 -0.046962 -0.988382
-2.402437 1.343376 -1.895368 0.035117 0.170227 -0.984779
-3.198001 -1.893622 -2.196822 0.873654 -0.158141 -0.460130
0.602313 -1.817284 1.138572 -0.398323 -0.684612 -0.610447
0.446592 -1.352920 -1.725870 -0.986801 0.070702 -0.145687
-4.816288 1.819019 -0.653689 -0.548514 0.564410 -0.616906
-3.262827 -3.645016 2.227922 0.000000 -1.000000 0.000000
-1.593479 2.716307 1.424988 -0.065566 0.503440 0.861539
-3.892668 2.444890 0.885077 -0.504257 0.578869 0.640809
-3.507359 -3.645016 -2.257758 0.000000 -1.000000 -0.000000
